0.0000,0.0000,0.0000,0.0000,50973.0000,0.0000,0.0000
0.0000,0.0000,0.0000,0.0000,50974.0000,0.0000,0.0000
0.0000,0.0000,0.0000,0.0000,50975.0000,0.0000,0.0000
0.0000,0.0000,0.0000,0.0000,50976.0000,0.0000,0.0000
0.0000,0.0000,0.0000,0.0000,50977.0000,0.0000,0.0000
0.0000,0.0000,0.0000,0.0000,50978.0000,0.0000,0.0000
0.0000,0.0000,0.0000,0.0000,50979.0000,0.0000,0.0000
0.0000,0.0000,0.0000,0.0000,50980.0000,0.0000,0.0000
0.0000,0.0000,0.0000,0.0000,50981.0000,0.0000,0.0000
0.0000,0.0000,0.0000,0.0000,50982.0000,0.0000,0.0000
0.0000,0.0000,0.0000,0.0000,50983.0000,0.0000,0.0000
0.0000,0.0000,0.0000,0.0000,50984.0000,0.0000,0.0000
0.0000,0.0000,0.0000,0.0000,50985.0000,0.0000,0.0000
0.0000,0.0000,0.0000,0.0000,50986.0000,0.0000,0.0000
0.0000,0.0000,0.0000,0.0000,50987.0000,0.0000,0.0000
0.0000,0.0000,0.0000,0.0000,50988.0000,0.0000,0.0000
0.0000,0.0000,0.0000,0.0000,50989.0000,0.0000,0.0000
0.0000,0.0000,0.0000,0.0000,50990.0000,0.0000,0.0000
0.0000,0.0000,0.0000,0.0000,50991.0000,0.0000,0.0000
0.0000,0.0000,0.0000,0.0000,50992.0000,0.0000,0.0000
0.0000,0.0000,0.0000,0.0000,50993.0000,0.0000,0.0000
0.0000,0.0000,0.0000,0.0000,50994.0000,0.0000,0.0000
0.0000,0.0000,0.0000,0.0000,50995.0000,0.0000,0.0000
0.0000,0.0000,0.0000,0.0000,50996.0000,0.0000,0.0000
0.0000,0.0000,0.0000,0.0000,50997.0000,0.0000,0.0000
0.0000,0.0000,0.0000,0.0000,50998.0000,0.0000,0.0000
0.0000,0.0000,0.0000,0.0000,50999.0000,0.0000,0.0000
0.0000,0.0000,0.0000,0.0000,51000.0000,0.0000,0.0000
0.0000,0.0000,0.0000,0.0000,51001.0000,0.0000,0.0000
0.0000,0.0000,0.0000,0.0000,51002.0000,0.0000,0.0000
0.0000,0.0000,0.0000,0.0000,51003.0000,0.0000,0.0000
0.0000,0.0000,0.0000,0.0000,51004.0000,0.0000,0.0000
0.0000,0.0000,0.0000,0.0000,51005.0000,0.0000,0.0000
0.0000,0.0000,0.0000,0.0000,51006.0000,0.0000,0.0000
0.0000,0.0000,0.0000,0.0000,51007.0000,0.0000,0.0000
0.0000,0.0000,0.0000,0.0000,51008.0000,0.0000,0.0000
0.0000,0.0000,0.0000,0.0000,51009.0000,0.0000,0.0000
0.0000,0.0000,0.0000,0.0000,51010.0000,0.0000,0.0000
0.0000,0.0000,0.0000,0.0000,51011.0000,0.0000,0.0000
0.0000,0.0000,0.0000,0.0000,51012.0000,0.0000,0.0000
0.0000,0.0000,0.0000,0.0000,51013.0000,0.0000,0.0000
0.0000,0.0000,0.0000,0.0000,51014.0000,0.0000,0.0000
0.0000,0.0000,0.0000,0.0000,51015.0000,0.0000,0.0000
0.0000,0.0000,0.0000,0.0000,51016.0000,0.0000,0.0000
0.0000,0.0000,0.0000,0.0000,51017.0000,0.0000,0.0000
0.0000,0.0000,0.0000,0.0000,51018.0000,0.0000,0.0000
0.0000,0.0000,0.0000,0.0000,51019.0000,0.0000,0.0000
0.0000,0.0000,0.0000,0.0000,51020.0000,0.0000,0.0000
0.0000,0.0000,0.0000,0.0000,51021.0000,0.0000,0.0000
0.0000,0.0000,0.0000,0.0000,51022.0000,0.0000,0.0000
0.0000,0.0000,0.0000,0.0000,51023.0000,0.0000,0.0000
0.0000,0.0000,0.0000,0.0000,51024.0000,0.0000,0.0000
0.0000,0.0000,0.0000,0.0000,51025.0000,0.0000,0.0000
0.0000,0.0000,0.0000,0.0000,51026.0000,0.0000,0.0000
0.0000,0.0000,0.0000,0.0000,51027.0000,0.0000,0.0000
0.0000,0.0000,0.0000,0.0000,51028.0000,0.0000,0.0000
0.0000,0.0000,0.0000,0.0000,51029.0000,0.0000,0.0000
0.0000,0.0000,0.0000,0.0000,51030.0000,0.0000,0.0000
0.0000,0.0000,0.0000,0.0000,51031.0000,0.0000,0.0000
0.0000,0.0000,0.0000,0.0000,51032.0000,0.0000,0.0000
0.0000,0.0000,0.0000,0.0000,51033.0000,0.0000,0.0000
0.0000,0.0000,0.0000,0.0000,51034.0000,0.0000,0.0000
0.0000,0.0000,0.0000,0.0000,51035.0000,0.0000,0.0000
0.0000,0.0000,0.0000,0.0000,51036.0000,0.0000,0.0000
0.0000,0.0000,0.0000,0.0000,51037.0000,0.0000,0.0000
0.0000,0.0000,0.0000,0.0000,51038.0000,0.0000,0.0000
0.0000,0.0000,0.0000,0.0000,51039.0000,0.0000,0.0000
0.0000,0.0000,0.0000,0.0000,51040.0000,0.0000,0.0000
0.0000,0.0000,0.0000,0.0000,51041.0000,0.0000,0.0000
0.0000,0.0000,0.0000,0.0000,51042.0000,0.0000,0.0000
0.0000,0.0000,0.0000,0.0000,51043.0000,0.0000,0.0000
0.0000,0.0000,0.0000,0.0000,51044.0000,0.0000,0.0000
0.0000,0.0000,0.0000,0.0000,51045.0000,0.0000,0.0000
0.0000,0.0000,0.0000,0.0000,51046.0000,0.0000,0.0000
0.0000,0.0000,0.0000,0.0000,51047.0000,0.0000,0.0000
0.0000,0.0000,0.0000,0.0000,51048.0000,0.0000,0.0000
0.0000,0.0000,0.0000,0.0000,51049.0000,0.0000,0.0000
0.0000,0.0000,0.0000,0.0000,51050.0000,0.0000,0.0000
0.0000,0.0000,0.0000,0.0000,51051.0000,0.0000,0.0000
0.0000,0.0000,0.0000,0.0000,51052.0000,0.0000,0.0000
0.0000,0.0000,0.0000,0.0000,51053.0000,0.0000,0.0000
0.0000,0.0000,0.0000,0.0000,51054.0000,0.0000,0.0000
0.0000,0.0000,0.0000,0.0000,51055.0000,0.0000,0.0000
0.0000,0.0000,0.0000,0.0000,51056.0000,0.0000,0.0000
0.0000,0.0000,0.0000,0.0000,51057.0000,0.0000,0.0000
0.0000,0.0000,0.0000,0.0000,51058.0000,0.0000,0.0000
0.0000,0.0000,0.0000,0.0000,51059.0000,0.0000,0.0000
6.3020,10.8935,-1.0807,685.0000,51060.0000,0.0000,0.0000
6.3517,10.9141,-1.0843,821.0000,51061.0000,0.0000,0.0000
6.3753,10.8947,-1.0839,867.0000,51062.0000,0.0000,0.0000
6.4057,10.8892,-1.0848,732.0000,51063.0000,0.0000,0.0000
6.4393,10.8818,-1.0857,706.0000,51064.0000,0.0000,0.0000
6.4847,10.8989,-1.0890,718.0000,51065.0000,0.0000,0.0000
6.5152,10.8931,-1.0899,321.0000,51066.0000,0.0000,0.0000
8.0477,13.3708,-1.3405,451.0000,51067.0000,0.0000,0.0000
8.0935,13.3715,-1.3426,520.0000,51068.0000,0.0000,0.0000
8.1191,13.3446,-1.3418,521.0000,51069.0000,0.0000,0.0000
8.1833,13.3749,-1.3469,532.0000,51070.0000,0.0000,0.0000
8.2043,13.3346,-1.3449,531.0000,51071.0000,0.0000,0.0000
8.2423,13.3276,-1.3521,424.0000,51072.0000,0.0000,0.0000
8.2994,13.3426,-1.3558,493.0000,51073.0000,0.0000,0.0000
8.3297,13.3202,-1.3556,479.0000,51074.0000,0.0000,0.0000
8.3702,13.3166,-1.3572,450.0000,51075.0000,0.0000,0.0000
8.4134,13.3089,-1.3586,457.0000,51076.0000,0.0000,0.0000
8.4530,13.3010,-1.3599,408.0000,51077.0000,0.0000,0.0000
8.4930,13.2962,-1.3614,525.0000,51078.0000,0.0000,0.0000
8.5447,13.3012,-1.3641,436.0000,51079.0000,0.0000,0.0000
8.5760,13.2799,-1.3641,440.0000,51080.0000,0.0000,0.0000
8.6070,13.2609,-1.3641,427.0000,51081.0000,0.0000,0.0000
8.6401,13.2370,-1.3640,430.0000,51082.0000,0.0000,0.0000
8.6934,13.2463,-1.3672,129.0000,51083.0000,0.0000,0.0000
9.3200,14.1314,-1.4608,33.0000,51084.0000,0.0000,0.0000
9.3618,14.1153,-1.4617,38.0000,51085.0000,0.0000,0.0000
9.3013,13.9487,-1.4468,66.0000,51086.0000,0.0000,0.0000
9.2584,13.8158,-1.4352,225.0000,51087.0000,0.0000,0.0000
8.9967,13.3540,-1.3895,106.0000,51088.0000,0.0000,0.0000
7.9809,11.7858,-1.2280,260.0000,51089.0000,0.0000,0.0000
8.0321,11.8028,-1.2317,812.0000,51090.0000,0.0000,0.0000
8.0229,11.7242,-1.2257,456.0000,51091.0000,0.0000,0.0000
8.0399,11.6889,-1.2240,696.0000,51092.0000,0.0000,0.0000
8.0462,11.6408,-1.2209,595.0000,51093.0000,0.0000,0.0000
8.0546,11.5888,-1.2176,381.0000,51094.0000,0.0000,0.0000
8.0783,11.5639,-1.2170,411.0000,51095.0000,0.0000,0.0000
8.0825,11.5134,-1.2137,382.0000,51096.0000,0.0000,0.0000
8.0706,11.4337,-1.2074,338.0000,51097.0000,0.0000,0.0000
8.0951,11.4103,-1.2070,378.0000,51098.0000,0.0000,0.0000
8.0981,11.3592,-1.2036,443.0000,51099.0000,0.0000,0.0000
8.1023,11.3034,-1.2012,449.0000,51100.0000,0.0000,0.0000
8.1173,11.2650,-1.1993,445.0000,51101.0000,0.0000,0.0000
8.1215,11.2164,-1.1961,341.0000,51102.0000,0.0000,0.0000
8.1235,11.1607,-1.1923,359.0000,51103.0000,0.0000,0.0000
8.1300,11.1114,-1.1892,369.0000,51104.0000,0.0000,0.0000
8.1514,11.0872,-1.1886,432.0000,51105.0000,0.0000,0.0000
8.1580,11.0363,-1.1854,437.0000,51106.0000,0.0000,0.0000
8.1495,10.9699,-1.1803,442.0000,51107.0000,0.0000,0.0000
8.1531,10.9223,-1.1772,433.0000,51108.0000,0.0000,0.0000
8.1620,10.8755,-1.1744,438.0000,51109.0000,0.0000,0.0000
8.1674,10.8288,-1.1715,567.0000,51110.0000,0.0000,0.0000
8.1699,10.7805,-1.1683,603.0000,51111.0000,0.0000,0.0000
8.2072,10.7717,-1.1697,756.0000,51112.0000,0.0000,0.0000
8.2726,10.8037,-1.1753,460.0000,51113.0000,0.0000,0.0000
8.3079,10.7983,-1.1794,466.0000,51114.0000,0.0000,0.0000
8.3256,10.7637,-1.1780,1188.0000,51115.0000,0.0000,0.0000
8.3699,10.7675,-1.1806,552.0000,51116.0000,0.0000,0.0000
8.4430,10.8079,-1.1873,288.0000,51117.0000,0.0000,0.0000
8.4879,10.8098,-1.1898,282.0000,51118.0000,0.0000,0.0000
8.5274,10.8046,-1.1916,23.0000,51119.0000,0.0000,0.0000
9.8520,12.4202,-1.3726,138.0000,51120.0000,0.0000,0.0000
9.8737,12.3817,-1.3712,96.0000,51121.0000,0.0000,0.0000
9.9143,12.3717,-1.3727,168.0000,51122.0000,0.0000,0.0000
9.9622,12.3731,-1.3754,162.0000,51123.0000,0.0000,0.0000
10.0554,12.4228,-1.3839,101.0000,51124.0000,0.0000,0.0000
10.0802,12.3926,-1.3832,19.0000,51125.0000,0.0000,0.0000
12.1329,14.8413,-1.6602,470.0000,51126.0000,0.0000,0.0000
12.1984,14.8429,-1.6639,729.0000,51127.0000,0.0000,0.0000
12.2479,14.8305,-1.6602,1020.0000,51128.0000,0.0000,0.0000
12.1494,14.6429,-1.6423,479.0000,51129.0000,0.0000,0.0000
12.0537,14.4516,-1.6243,156.0000,51130.0000,0.0000,0.0000
12.0501,14.3773,-1.6192,195.0000,51131.0000,0.0000,0.0000
12.0542,14.3153,-1.6153,189.0000,51132.0000,0.0000,0.0000
12.1227,14.3211,-1.6195,107.0000,51133.0000,0.0000,0.0000
12.1974,14.3368,-1.6247,87.0000,51134.0000,0.0000,0.0000
12.1354,14.1978,-1.6121,167.0000,51135.0000,0.0000,0.0000
12.1440,14.1366,-1.6086,76.0000,51136.0000,0.0000,0.0000
12.1855,14.1136,-1.6095,144.0000,51137.0000,0.0000,0.0000
12.2287,14.0980,-1.6109,160.0000,51138.0000,0.0000,0.0000
12.3426,14.1550,-1.6211,93.0000,51139.0000,0.0000,0.0000
12.4329,14.1897,-1.6284,75.0000,51140.0000,0.0000,0.0000
12.4765,14.1736,-1.6390,79.0000,51141.0000,0.0000,0.0000
12.5170,14.1456,-1.6395,66.0000,51142.0000,0.0000,0.0000
12.5644,14.1308,-1.6413,76.0000,51143.0000,0.0000,0.0000
12.6292,14.1381,-1.6455,60.0000,51144.0000,0.0000,0.0000
12.6683,14.1083,-1.6459,47.0000,51145.0000,0.0000,0.0000
12.7346,14.1140,-1.6501,55.0000,51146.0000,0.0000,0.0000
12.7971,14.1178,-1.6540,46.0000,51147.0000,0.0000,0.0000
12.8519,14.1047,-1.6563,54.0000,51148.0000,0.0000,0.0000
12.8988,14.0855,-1.6579,82.0000,51149.0000,0.0000,0.0000
12.9483,14.0744,-1.6601,111.0000,51150.0000,0.0000,0.0000
12.9720,14.0300,-1.6586,124.0000,51151.0000,0.0000,0.0000
12.9936,13.9833,-1.6569,156.0000,51152.0000,0.0000,0.0000
13.0131,13.9399,-1.6553,207.0000,51153.0000,0.0000,0.0000
13.0717,13.9329,-1.6584,201.0000,51154.0000,0.0000,0.0000
13.0812,13.8737,-1.6515,194.0000,51155.0000,0.0000,0.0000
13.0936,13.8231,-1.6490,155.0000,51156.0000,0.0000,0.0000
13.1259,13.7856,-1.6486,124.0000,51157.0000,0.0000,0.0000
13.1602,13.7555,-1.6488,97.0000,51158.0000,0.0000,0.0000
13.1809,13.7140,-1.6475,128.0000,51159.0000,0.0000,0.0000
13.2312,13.6952,-1.6493,159.0000,51160.0000,0.0000,0.0000
13.2605,13.6600,-1.6489,134.0000,51161.0000,0.0000,0.0000
13.2871,13.6245,-1.6483,113.0000,51162.0000,0.0000,0.0000
13.3039,13.5714,-1.6460,121.0000,51163.0000,0.0000,0.0000
13.3165,13.5193,-1.6436,124.0000,51164.0000,0.0000,0.0000
13.3578,13.4990,-1.6448,127.0000,51165.0000,0.0000,0.0000
13.3658,13.4375,-1.6415,135.0000,51166.0000,0.0000,0.0000
13.4357,13.4406,-1.6460,165.0000,51167.0000,0.0000,0.0000
13.4465,13.3898,-1.6436,186.0000,51168.0000,0.0000,0.0000
13.4644,13.3409,-1.6453,200.0000,51169.0000,0.0000,0.0000
13.4642,13.2746,-1.6413,194.0000,51170.0000,0.0000,0.0000
13.4933,13.2422,-1.6411,186.0000,51171.0000,0.0000,0.0000
13.4849,13.1658,-1.6360,173.0000,51172.0000,0.0000,0.0000
13.5422,13.1585,-1.6391,165.0000,51173.0000,0.0000,0.0000
13.5374,13.0935,-1.6349,146.0000,51174.0000,0.0000,0.0000
13.5796,13.0665,-1.6359,137.0000,51175.0000,0.0000,0.0000
13.5982,13.0218,-1.6343,127.0000,51176.0000,0.0000,0.0000
13.5886,12.9530,-1.6296,123.0000,51177.0000,0.0000,0.0000
13.1486,12.4697,-1.5730,47.0000,51178.0000,0.0000,0.0000
13.0204,12.2894,-1.5541,34.0000,51179.0000,0.0000,0.0000
12.9798,12.1948,-1.5459,45.0000,51180.0000,0.0000,0.0000
12.9813,12.1333,-1.5424,53.0000,51181.0000,0.0000,0.0000
12.9891,12.0802,-1.5329,49.0000,51182.0000,0.0000,0.0000
12.9885,12.0264,-1.5297,42.0000,51183.0000,0.0000,0.0000
13.0109,11.9848,-1.5287,49.0000,51184.0000,0.0000,0.0000
13.0242,11.9373,-1.5267,47.0000,51185.0000,0.0000,0.0000
13.0602,11.9151,-1.5277,54.0000,51186.0000,0.0000,0.0000
13.1068,11.8956,-1.5296,69.0000,51187.0000,0.0000,0.0000
13.3115,12.0231,-1.5501,51.0000,51188.0000,0.0000,0.0000
13.8395,12.4414,-1.6083,94.0000,51189.0000,0.0000,0.0000
13.8462,12.3829,-1.6053,100.0000,51190.0000,0.0000,0.0000
13.8649,12.3400,-1.6041,78.0000,51191.0000,0.0000,0.0000
13.8946,12.3093,-1.6042,111.0000,51192.0000,0.0000,0.0000
13.8928,12.2438,-1.6004,96.0000,51193.0000,0.0000,0.0000
13.9184,12.2072,-1.6000,107.0000,51194.0000,0.0000,0.0000
13.9412,12.1707,-1.5994,99.0000,51195.0000,0.0000,0.0000
13.9794,12.1404,-1.6091,106.0000,51196.0000,0.0000,0.0000
14.0047,12.1037,-1.6086,99.0000,51197.0000,0.0000,0.0000
14.0115,12.0511,-1.6061,96.0000,51198.0000,0.0000,0.0000
14.0436,12.0180,-1.6064,79.0000,51199.0000,0.0000,0.0000
14.0586,11.9704,-1.6047,84.0000,51200.0000,0.0000,0.0000
14.0809,11.9336,-1.6041,94.0000,51201.0000,0.0000,0.0000
14.1496,11.9291,-1.6084,93.0000,51202.0000,0.0000,0.0000
14.1834,11.8995,-1.6090,106.0000,51203.0000,0.0000,0.0000
14.2121,11.8681,-1.6092,106.0000,51204.0000,0.0000,0.0000
14.2053,11.8002,-1.6049,81.0000,51205.0000,0.0000,0.0000
14.2417,11.7729,-1.6059,102.0000,51206.0000,0.0000,0.0000
14.2777,11.7475,-1.6069,81.0000,51207.0000,0.0000,0.0000
14.3156,11.7167,-1.6077,82.0000,51208.0000,0.0000,0.0000
14.3519,11.6891,-1.6086,108.0000,51209.0000,0.0000,0.0000
14.3987,11.6722,-1.6055,109.0000,51210.0000,0.0000,0.0000
14.4045,11.6154,-1.6028,108.0000,51211.0000,0.0000,0.0000
14.4209,11.5717,-1.6016,106.0000,51212.0000,0.0000,0.0000
14.4398,11.5324,-1.6007,113.0000,51213.0000,0.0000,0.0000
14.4970,11.5168,-1.6038,113.0000,51214.0000,0.0000,0.0000
14.5279,11.4824,-1.6040,114.0000,51215.0000,0.0000,0.0000
14.5527,11.4478,-1.6038,88.0000,51216.0000,0.0000,0.0000
14.5497,11.3869,-1.6004,109.0000,51217.0000,0.0000,0.0000
14.5549,11.3327,-1.5978,116.0000,51218.0000,0.0000,0.0000
14.5978,11.3123,-1.5997,105.0000,51219.0000,0.0000,0.0000
14.5969,11.2513,-1.5964,88.0000,51220.0000,0.0000,0.0000
14.6400,11.2287,-1.5982,113.0000,51221.0000,0.0000,0.0000
14.6464,11.1802,-1.5961,90.0000,51222.0000,0.0000,0.0000
14.6744,11.1417,-1.5960,124.0000,51223.0000,0.0000,0.0000
14.6934,11.1008,-1.6041,97.0000,51224.0000,0.0000,0.0000
12.8293,9.6495,-1.3981,34.0000,51225.0000,0.0000,0.0000
12.8284,9.5970,-1.3953,35.0000,51226.0000,0.0000,0.0000
12.8326,9.5523,-1.3933,319.0000,51227.0000,0.0000,0.0000
12.8599,9.5268,-1.3939,303.0000,51228.0000,0.0000,0.0000
12.8594,9.4751,-1.3912,183.0000,51229.0000,0.0000,0.0000
12.8922,9.4517,-1.3923,79.0000,51230.0000,0.0000,0.0000
12.8478,9.3739,-1.3852,172.0000,51231.0000,0.0000,0.0000
12.8436,9.3201,-1.3821,437.0000,51232.0000,0.0000,0.0000
12.8904,9.3051,-1.3846,174.0000,51233.0000,0.0000,0.0000
12.9339,9.2913,-1.3870,117.0000,51234.0000,0.0000,0.0000
12.8325,9.1704,-1.3737,92.0000,51235.0000,0.0000,0.0000
12.7767,9.0826,-1.3653,33.0000,51236.0000,0.0000,0.0000
12.7943,9.0510,-1.3650,49.0000,51237.0000,0.0000,0.0000
12.8222,9.0210,-1.3685,49.0000,51238.0000,0.0000,0.0000
12.8621,9.0031,-1.3704,49.0000,51239.0000,0.0000,0.0000
12.9235,9.0018,-1.3748,54.0000,51240.0000,0.0000,0.0000
12.9995,9.0048,-1.3804,49.0000,51241.0000,0.0000,0.0000
13.1926,9.0915,-1.3986,18.0000,51242.0000,0.0000,0.0000
13.2511,9.0869,-1.4026,15.0000,51243.0000,0.0000,0.0000
15.0347,10.2496,-1.5885,77.0000,51244.0000,0.0000,0.0000
15.0431,10.2026,-1.5869,105.0000,51245.0000,0.0000,0.0000
15.0503,10.1571,-1.5852,104.0000,51246.0000,0.0000,0.0000
15.0829,10.1224,-1.5858,106.0000,51247.0000,0.0000,0.0000
15.1218,10.0940,-1.5873,105.0000,51248.0000,0.0000,0.0000
15.1247,10.0457,-1.5852,95.0000,51249.0000,0.0000,0.0000
14.4071,9.5187,-1.5075,89.0000,51250.0000,0.0000,0.0000
14.3559,9.4337,-1.4996,74.0000,51251.0000,0.0000,0.0000
14.3482,9.3816,-1.4966,69.0000,51252.0000,0.0000,0.0000
14.3323,9.3185,-1.4924,57.0000,51253.0000,0.0000,0.0000
14.3366,9.2725,-1.4905,59.0000,51254.0000,0.0000,0.0000
14.3210,9.2158,-1.4867,68.0000,51255.0000,0.0000,0.0000
14.3570,9.1866,-1.4880,64.0000,51256.0000,0.0000,0.0000
14.3354,9.1245,-1.4835,73.0000,51257.0000,0.0000,0.0000
14.3316,9.0759,-1.4809,99.0000,51258.0000,0.0000,0.0000
14.3492,9.0351,-1.4803,109.0000,51259.0000,0.0000,0.0000
14.3592,8.9935,-1.4791,66.0000,51260.0000,0.0000,0.0000
14.4129,8.9810,-1.4826,67.0000,51261.0000,0.0000,0.0000
14.6338,9.0658,-1.5029,48.0000,51262.0000,0.0000,0.0000
15.3758,9.4733,-1.5767,106.0000,51263.0000,0.0000,0.0000
15.4041,9.4420,-1.5774,111.0000,51264.0000,0.0000,0.0000
15.4085,9.3900,-1.5754,110.0000,51265.0000,0.0000,0.0000
15.4318,9.3515,-1.5754,109.0000,51266.0000,0.0000,0.0000
15.4482,9.3130,-1.5749,118.0000,51267.0000,0.0000,0.0000
15.4822,9.2790,-1.5759,125.0000,51268.0000,0.0000,0.0000
15.4843,9.2299,-1.5738,114.0000,51269.0000,0.0000,0.0000
15.5037,9.1933,-1.5737,126.0000,51270.0000,0.0000,0.0000
15.4897,9.1309,-1.5698,119.0000,51271.0000,0.0000,0.0000
15.5291,9.1041,-1.5716,117.0000,51272.0000,0.0000,0.0000
15.5331,9.0585,-1.5699,110.0000,51273.0000,0.0000,0.0000
15.5674,9.0246,-1.5710,118.0000,51274.0000,0.0000,0.0000
15.5408,8.9596,-1.5662,112.0000,51275.0000,0.0000,0.0000
15.5715,8.9297,-1.5672,109.0000,51276.0000,0.0000,0.0000
15.5945,8.8893,-1.5672,103.0000,51277.0000,0.0000,0.0000
15.5920,8.8385,-1.5648,108.0000,51278.0000,0.0000,0.0000
15.5879,8.7889,-1.5589,100.0000,51279.0000,0.0000,0.0000
15.6309,8.7599,-1.5610,113.0000,51280.0000,0.0000,0.0000
15.6569,8.7233,-1.5614,114.0000,51281.0000,0.0000,0.0000
15.6743,8.6859,-1.5611,94.0000,51282.0000,0.0000,0.0000
15.6933,8.6453,-1.5609,116.0000,51283.0000,0.0000,0.0000
15.6805,8.5876,-1.5575,113.0000,51284.0000,0.0000,0.0000
15.7429,8.5747,-1.5617,121.0000,51285.0000,0.0000,0.0000
15.6905,8.4937,-1.5544,112.0000,51286.0000,0.0000,0.0000
15.7562,8.4804,-1.5589,111.0000,51287.0000,0.0000,0.0000
15.4915,8.2925,-1.5308,108.0000,51288.0000,0.0000,0.0000
15.7329,8.3691,-1.5525,117.0000,51289.0000,0.0000,0.0000
15.7598,8.3350,-1.5532,136.0000,51290.0000,0.0000,0.0000
15.7918,8.3055,-1.5544,118.0000,51291.0000,0.0000,0.0000
15.7786,8.2466,-1.5511,136.0000,51292.0000,0.0000,0.0000
15.8017,8.2105,-1.5514,124.0000,51293.0000,0.0000,0.0000
15.8448,8.1866,-1.5538,114.0000,51294.0000,0.0000,0.0000
15.8485,8.1367,-1.5521,111.0000,51295.0000,0.0000,0.0000
15.8704,8.0981,-1.5522,122.0000,51296.0000,0.0000,0.0000
15.8785,8.0563,-1.5512,122.0000,51297.0000,0.0000,0.0000
15.9072,8.0210,-1.5521,103.0000,51298.0000,0.0000,0.0000
15.9384,7.9870,-1.5532,133.0000,51299.0000,0.0000,0.0000
15.9628,7.9534,-1.5538,114.0000,51300.0000,0.0000,0.0000
15.9388,7.8920,-1.5495,99.0000,51301.0000,0.0000,0.0000
15.9305,7.8385,-1.5468,87.0000,51302.0000,0.0000,0.0000
15.9414,7.7984,-1.5461,73.0000,51303.0000,0.0000,0.0000
15.9448,7.7491,-1.5445,80.0000,51304.0000,0.0000,0.0000
15.9344,7.6969,-1.5417,90.0000,51305.0000,0.0000,0.0000
15.9978,7.6822,-1.5547,94.0000,51306.0000,0.0000,0.0000
15.9719,7.6190,-1.5503,95.0000,51307.0000,0.0000,0.0000
15.9584,7.5658,-1.5472,74.0000,51308.0000,0.0000,0.0000
15.9625,7.5228,-1.5459,71.0000,51309.0000,0.0000,0.0000
15.9748,7.4782,-1.5453,79.0000,51310.0000,0.0000,0.0000
15.9952,7.4411,-1.5455,113.0000,51311.0000,0.0000,0.0000
16.0034,7.4002,-1.5447,99.0000,51312.0000,0.0000,0.0000
16.0136,7.3547,-1.5438,107.0000,51313.0000,0.0000,0.0000
16.0434,7.3200,-1.5449,106.0000,51314.0000,0.0000,0.0000
16.0459,7.2767,-1.5435,104.0000,51315.0000,0.0000,0.0000
16.0542,7.2322,-1.5426,75.0000,51316.0000,0.0000,0.0000
16.0419,7.1787,-1.5397,77.0000,51317.0000,0.0000,0.0000
16.0512,7.1387,-1.5390,85.0000,51318.0000,0.0000,0.0000
16.0508,7.0889,-1.5372,92.0000,51319.0000,0.0000,0.0000
16.0722,7.0523,-1.5377,76.0000,51320.0000,0.0000,0.0000
16.0821,7.0126,-1.5371,76.0000,51321.0000,0.0000,0.0000
16.1046,6.9729,-1.5375,76.0000,51322.0000,0.0000,0.0000
16.1060,6.9277,-1.5360,102.0000,51323.0000,0.0000,0.0000
16.1191,6.8895,-1.5358,98.0000,51324.0000,0.0000,0.0000
16.1225,6.8417,-1.5344,93.0000,51325.0000,0.0000,0.0000
16.1630,6.8132,-1.5367,83.0000,51326.0000,0.0000,0.0000
16.1651,6.7704,-1.5354,89.0000,51327.0000,0.0000,0.0000
16.1628,6.7203,-1.5336,91.0000,51328.0000,0.0000,0.0000
16.1749,6.6782,-1.5331,85.0000,51329.0000,0.0000,0.0000
16.1625,6.6314,-1.5306,97.0000,51330.0000,0.0000,0.0000
16.1877,6.5929,-1.5313,84.0000,51331.0000,0.0000,0.0000
16.2274,6.5620,-1.5336,103.0000,51332.0000,0.0000,0.0000
16.2488,6.5271,-1.5342,101.0000,51333.0000,0.0000,0.0000
16.2631,6.4859,-1.5340,98.0000,51334.0000,0.0000,0.0000
16.2638,6.4393,-1.5326,95.0000,51335.0000,0.0000,0.0000
16.1952,6.3692,-1.5247,116.0000,51336.0000,0.0000,0.0000
16.2333,6.3357,-1.5268,161.0000,51337.0000,0.0000,0.0000
16.3065,6.3192,-1.5322,130.0000,51338.0000,0.0000,0.0000
16.2964,6.2722,-1.5299,95.0000,51339.0000,0.0000,0.0000
16.3034,6.2266,-1.5291,82.0000,51340.0000,0.0000,0.0000
16.3173,6.1871,-1.5290,91.0000,51341.0000,0.0000,0.0000
16.3105,6.1417,-1.5270,75.0000,51342.0000,0.0000,0.0000
16.3263,6.0995,-1.5270,95.0000,51343.0000,0.0000,0.0000
16.3399,6.0600,-1.5269,102.0000,51344.0000,0.0000,0.0000
16.3711,6.0287,-1.5285,82.0000,51345.0000,0.0000,0.0000
16.3719,5.9810,-1.5272,89.0000,51346.0000,0.0000,0.0000
16.3968,5.9438,-1.5281,78.0000,51347.0000,0.0000,0.0000
16.3545,5.8861,-1.5229,71.0000,51348.0000,0.0000,0.0000
16.3938,5.8541,-1.5252,75.0000,51349.0000,0.0000,0.0000
16.4211,5.8177,-1.5264,86.0000,51350.0000,0.0000,0.0000
16.4500,5.7854,-1.5279,75.0000,51351.0000,0.0000,0.0000
16.4318,5.7313,-1.5248,80.0000,51352.0000,0.0000,0.0000
16.4592,5.6967,-1.5261,90.0000,51353.0000,0.0000,0.0000
16.4566,5.6534,-1.5246,70.0000,51354.0000,0.0000,0.0000
16.4508,5.6039,-1.5227,70.0000,51355.0000,0.0000,0.0000
16.4770,5.5688,-1.5239,74.0000,51356.0000,0.0000,0.0000
16.5008,5.5346,-1.5250,96.0000,51357.0000,0.0000,0.0000
16.5012,5.4873,-1.5237,89.0000,51358.0000,0.0000,0.0000
16.4957,5.4416,-1.5220,81.0000,51359.0000,0.0000,0.0000
16.5128,5.4052,-1.5224,89.0000,51360.0000,0.0000,0.0000
16.5248,5.3618,-1.5222,88.0000,51361.0000,0.0000,0.0000
16.5705,5.3310,-1.5252,88.0000,51362.0000,0.0000,0.0000
16.5576,5.2849,-1.5229,88.0000,51363.0000,0.0000,0.0000
16.5632,5.2413,-1.5222,73.0000,51364.0000,0.0000,0.0000
16.6003,5.2075,-1.5244,79.0000,51365.0000,0.0000,0.0000
16.5964,5.1644,-1.5230,73.0000,51366.0000,0.0000,0.0000
16.6013,5.1189,-1.5222,74.0000,51367.0000,0.0000,0.0000
16.6079,5.0774,-1.5217,77.0000,51368.0000,0.0000,0.0000
16.6483,5.0478,-1.5244,85.0000,51369.0000,0.0000,0.0000
16.6818,5.0108,-1.5262,91.0000,51370.0000,0.0000,0.0000
16.6965,4.9717,-1.5265,75.0000,51371.0000,0.0000,0.0000
16.6910,4.9283,-1.5250,96.0000,51372.0000,0.0000,0.0000
16.6868,4.8802,-1.5234,75.0000,51373.0000,0.0000,0.0000
16.7180,4.8459,-1.5252,78.0000,51374.0000,0.0000,0.0000
16.7256,4.8064,-1.5333,75.0000,51375.0000,0.0000,0.0000
16.7501,4.7665,-1.5344,71.0000,51376.0000,0.0000,0.0000
16.7211,4.7150,-1.5307,75.0000,51377.0000,0.0000,0.0000
16.7497,4.6815,-1.5324,73.0000,51378.0000,0.0000,0.0000
16.7495,4.6348,-1.5312,88.0000,51379.0000,0.0000,0.0000
16.7693,4.5953,-1.5320,97.0000,51380.0000,0.0000,0.0000
16.7826,4.5575,-1.5323,95.0000,51381.0000,0.0000,0.0000
16.7920,4.5151,-1.5321,90.0000,51382.0000,0.0000,0.0000
16.7881,4.4693,-1.5307,96.0000,51383.0000,0.0000,0.0000
16.7785,4.4254,-1.5289,101.0000,51384.0000,0.0000,0.0000
16.8200,4.3898,-1.5317,101.0000,51385.0000,0.0000,0.0000
16.8059,4.3432,-1.5294,96.0000,51386.0000,0.0000,0.0000
16.8450,4.3120,-1.5321,99.0000,51387.0000,0.0000,0.0000
16.8315,4.2622,-1.5299,92.0000,51388.0000,0.0000,0.0000
16.8282,4.2185,-1.5203,105.0000,51389.0000,0.0000,0.0000
16.8264,4.1769,-1.5192,96.0000,51390.0000,0.0000,0.0000
16.7908,4.1221,-1.5151,382.0000,51391.0000,0.0000,0.0000
16.8176,4.0859,-1.5166,607.0000,51392.0000,0.0000,0.0000
16.8449,4.0515,-1.5182,419.0000,51393.0000,0.0000,0.0000
16.8893,4.0159,-1.5213,148.0000,51394.0000,0.0000,0.0000
16.8850,3.9705,-1.5200,98.0000,51395.0000,0.0000,0.0000
16.8624,3.9260,-1.5172,89.0000,51396.0000,0.0000,0.0000
16.8886,3.8861,-1.5187,75.0000,51397.0000,0.0000,0.0000
16.8735,3.8384,-1.5164,77.0000,51398.0000,0.0000,0.0000
16.8841,3.7999,-1.5166,84.0000,51399.0000,0.0000,0.0000
16.9144,3.7625,-1.5185,74.0000,51400.0000,0.0000,0.0000
16.9103,3.7174,-1.5173,67.0000,51401.0000,0.0000,0.0000
16.8969,3.6738,-1.5153,64.0000,51402.0000,0.0000,0.0000
16.9277,3.6346,-1.5223,70.0000,51403.0000,0.0000,0.0000
16.9259,3.5918,-1.5213,68.0000,51404.0000,0.0000,0.0000
16.9350,3.5530,-1.5214,72.0000,51405.0000,0.0000,0.0000
16.9307,3.5064,-1.5202,75.0000,51406.0000,0.0000,0.0000
16.9085,3.4596,-1.5175,79.0000,51407.0000,0.0000,0.0000
16.9412,3.4257,-1.5197,78.0000,51408.0000,0.0000,0.0000
16.9442,3.3807,-1.5192,73.0000,51409.0000,0.0000,0.0000
16.9732,3.3442,-1.5211,78.0000,51410.0000,0.0000,0.0000
16.9655,3.3022,-1.5197,82.0000,51411.0000,0.0000,0.0000
16.9663,3.2568,-1.5190,84.0000,51412.0000,0.0000,0.0000
16.9991,3.2192,-1.5212,81.0000,51413.0000,0.0000,0.0000
16.9959,3.1781,-1.5203,69.0000,51414.0000,0.0000,0.0000
16.9693,3.1294,-1.5172,62.0000,51415.0000,0.0000,0.0000
16.9894,3.0894,-1.5183,61.0000,51416.0000,0.0000,0.0000
16.9638,3.0444,-1.5154,66.0000,51417.0000,0.0000,0.0000
17.0444,3.0133,-1.5219,87.0000,51418.0000,0.0000,0.0000
17.0208,2.9671,-1.5192,74.0000,51419.0000,0.0000,0.0000
16.9815,2.9201,-1.5151,96.0000,51420.0000,0.0000,0.0000
17.0034,2.8786,-1.5164,179.0000,51421.0000,0.0000,0.0000
17.0706,2.8478,-1.5217,112.0000,51422.0000,0.0000,0.0000
17.0799,2.8090,-1.5220,81.0000,51423.0000,0.0000,0.0000
17.0516,2.7591,-1.5188,105.0000,51424.0000,0.0000,0.0000
17.0436,2.7159,-1.5175,113.0000,51425.0000,0.0000,0.0000
17.0863,2.6824,-1.5208,82.0000,51426.0000,0.0000,0.0000
17.0903,2.6377,-1.5206,76.0000,51427.0000,0.0000,0.0000
17.0965,2.5967,-1.5206,74.0000,51428.0000,0.0000,0.0000
17.1161,2.5577,-1.5217,96.0000,51429.0000,0.0000,0.0000
17.1223,2.5151,-1.5217,97.0000,51430.0000,0.0000,0.0000
17.0813,2.4656,-1.5175,67.0000,51431.0000,0.0000,0.0000
17.0965,2.4277,-1.5184,71.0000,51432.0000,0.0000,0.0000
17.0805,2.3803,-1.5164,71.0000,51433.0000,0.0000,0.0000
17.0533,2.3350,-1.5135,70.0000,51434.0000,0.0000,0.0000
17.1029,2.3016,-1.5175,78.0000,51435.0000,0.0000,0.0000
17.0740,2.2528,-1.5144,79.0000,51436.0000,0.0000,0.0000
17.1189,2.2169,-1.5179,70.0000,51437.0000,0.0000,0.0000
17.0814,2.1722,-1.5141,68.0000,51438.0000,0.0000,0.0000
17.0531,2.1238,-1.5111,69.0000,51439.0000,0.0000,0.0000
17.0368,2.0804,-1.5092,71.0000,51440.0000,0.0000,0.0000
17.0618,2.0436,-1.5111,73.0000,51441.0000,0.0000,0.0000
17.0815,2.0011,-1.5123,78.0000,51442.0000,0.0000,0.0000
17.0651,1.9561,-1.5105,73.0000,51443.0000,0.0000,0.0000
17.0810,1.9198,-1.5098,85.0000,51444.0000,0.0000,0.0000
17.0685,1.8737,-1.5083,74.0000,51445.0000,0.0000,0.0000
17.0537,1.8291,-1.5066,74.0000,51446.0000,0.0000,0.0000
17.0655,1.7906,-1.5073,71.0000,51447.0000,0.0000,0.0000
17.0747,1.7486,-1.5077,72.0000,51448.0000,0.0000,0.0000
17.0664,1.7047,-1.5066,70.0000,51449.0000,0.0000,0.0000
17.1070,1.6690,-1.5098,74.0000,51450.0000,0.0000,0.0000
17.0831,1.6221,-1.5073,66.0000,51451.0000,0.0000,0.0000
5.5445,0.5303,-0.4891,1.0000,51452.0000,0.0000,1.0000
5.5137,0.5147,-0.4863,2.0000,51453.0000,0.0000,1.0000
5.5333,0.5020,-0.4879,4.0000,51454.0000,0.0000,1.0000
5.5606,0.4909,-0.4902,21.0000,51455.0000,0.0000,1.0000
5.5588,0.4779,-0.4900,333.0000,51456.0000,0.0000,0.0000
5.5250,0.4608,-0.4869,2421.0000,51457.0000,0.0000,0.0000
5.5114,0.4464,-0.4872,3028.0000,51458.0000,0.0000,0.0000
5.5181,0.4341,-0.4877,3152.0000,51459.0000,0.0000,0.0000
5.5512,0.4221,-0.4905,3229.0000,51460.0000,0.0000,0.0000
5.5259,0.4065,-0.4882,3264.0000,51461.0000,0.0000,0.0000
5.5210,0.3934,-0.4877,3384.0000,51462.0000,0.0000,0.0000
5.5277,0.3800,-0.4882,3239.0000,51463.0000,0.0000,0.0000
5.4936,0.3641,-0.4851,3282.0000,51464.0000,0.0000,0.0000
5.5061,0.3521,-0.4862,3470.0000,51465.0000,0.0000,0.0000
5.5098,0.3386,-0.4864,3384.0000,51466.0000,0.0000,0.0000
5.4930,0.3239,-0.4849,3495.0000,51467.0000,0.0000,0.0000
5.4859,0.3108,-0.4842,3381.0000,51468.0000,0.0000,0.0000
5.5090,0.2977,-0.4862,3277.0000,51469.0000,0.0000,0.0000
5.4951,0.2838,-0.4849,3257.0000,51470.0000,0.0000,0.0000
5.4986,0.2713,-0.4851,3104.0000,51471.0000,0.0000,0.0000
5.4885,0.2566,-0.4842,2853.0000,51472.0000,0.0000,0.0000
5.4715,0.2428,-0.4827,3123.0000,51473.0000,0.0000,0.0000
5.4691,0.2301,-0.4824,3182.0000,51474.0000,0.0000,0.0000
5.4754,0.2161,-0.4829,3403.0000,51475.0000,0.0000,0.0000
5.4380,0.2018,-0.4796,3151.0000,51476.0000,0.0000,0.0000
5.4617,0.1900,-0.4816,3285.0000,51477.0000,0.0000,0.0000
5.4388,0.1752,-0.4796,3201.0000,51478.0000,0.0000,0.0000
5.4450,0.1618,-0.4801,3285.0000,51479.0000,0.0000,0.0000
5.4452,0.1492,-0.4801,3180.0000,51480.0000,0.0000,0.0000
5.4455,0.1357,-0.4801,2790.0000,51481.0000,0.0000,0.0000
5.4458,0.1221,-0.4801,3082.0000,51482.0000,0.0000,0.0000
5.4489,0.1096,-0.4803,3369.0000,51483.0000,0.0000,0.0000
5.4404,0.0954,-0.4796,2989.0000,51484.0000,0.0000,0.0000
5.3998,0.0819,-0.4749,2328.0000,51485.0000,0.0000,0.0000
5.4086,0.0696,-0.4757,3065.0000,51486.0000,0.0000,0.0000
5.4175,0.0556,-0.4765,3346.0000,51487.0000,0.0000,0.0000
5.4000,0.0426,-0.4749,3197.0000,51488.0000,0.0000,0.0000
5.3913,0.0302,-0.4742,3328.0000,51489.0000,0.0000,0.0000
5.4001,0.0162,-0.4749,3200.0000,51490.0000,0.0000,0.0000
5.4000,0.0032,-0.4749,3401.0000,51491.0000,0.0000,0.0000
5.3999,-0.0092,-0.4749,3190.0000,51492.0000,0.0000,0.0000
5.4115,-0.0233,-0.4760,2968.0000,51493.0000,0.0000,0.0000
5.3764,-0.0364,-0.4729,2249.0000,51494.0000,0.0000,0.0000
5.3529,-0.0484,-0.4708,2980.0000,51495.0000,0.0000,0.0000
5.3497,-0.0617,-0.4706,3159.0000,51496.0000,0.0000,0.0000
5.3758,-0.0755,-0.4729,3309.0000,51497.0000,0.0000,0.0000
5.3697,-0.0878,-0.4724,3159.0000,51498.0000,0.0000,0.0000
5.3519,-0.1013,-0.4708,3309.0000,51499.0000,0.0000,0.0000
5.4496,0.1025,-0.4736,4095.0000,51500.0000,0.0000,0.0000
5.4120,0.0876,-0.4703,4095.0000,51501.0000,0.0000,0.0000
5.4152,0.0747,-0.4706,4095.0000,51502.0000,0.0000,0.0000
5.4475,0.0622,-0.4734,4095.0000,51503.0000,0.0000,0.0000
5.4360,0.0485,-0.4724,4095.0000,51504.0000,0.0000,0.0000
5.3924,0.0345,-0.4686,4095.0000,51505.0000,0.0000,0.0000
5.4042,0.0222,-0.4696,4095.0000,51506.0000,0.0000,0.0000
5.4043,0.0082,-0.4696,4095.0000,51507.0000,0.0000,0.0000
5.3869,-0.0048,-0.4681,4095.0000,51508.0000,0.0000,0.0000
5.4044,-0.0172,-0.4696,4095.0000,51509.0000,0.0000,0.0000
5.4044,-0.0312,-0.4696,4095.0000,51510.0000,0.0000,0.0000
5.4278,-0.0442,-0.4716,4095.0000,51511.0000,0.0000,0.0000
5.4043,-0.0566,-0.4696,4095.0000,51512.0000,0.0000,0.0000
5.3809,-0.0704,-0.4676,4095.0000,51513.0000,0.0000,0.0000
5.3691,-0.0832,-0.4665,4095.0000,51514.0000,0.0000,0.0000
5.3806,-0.0957,-0.4676,4095.0000,51515.0000,0.0000,0.0000
5.3658,-0.1094,-0.4663,4095.0000,51516.0000,0.0000,0.0000
5.3538,-0.1220,-0.4668,4095.0000,51517.0000,0.0000,0.0000
5.3653,-0.1346,-0.4678,4095.0000,51518.0000,0.0000,0.0000
5.3620,-0.1484,-0.4676,4095.0000,51519.0000,0.0000,0.0000
5.3501,-0.1615,-0.4666,4095.0000,51520.0000,0.0000,0.0000
5.3439,-0.1736,-0.4660,4095.0000,51521.0000,0.0000,0.0000
5.3318,-0.1866,-0.4650,4095.0000,51522.0000,0.0000,0.0000
5.3314,-0.1999,-0.4650,4095.0000,51523.0000,0.0000,0.0000
5.3106,-0.2114,-0.4632,4095.0000,51524.0000,0.0000,0.0000
5.3305,-0.2259,-0.4650,4095.0000,51525.0000,0.0000,0.0000
5.3300,-0.2387,-0.4650,4095.0000,51526.0000,0.0000,0.0000
5.3062,-0.2500,-0.4630,4095.0000,51527.0000,0.0000,0.0000
5.3114,-0.2640,-0.4635,4095.0000,51528.0000,0.0000,0.0000
5.3312,-0.2777,-0.4653,4095.0000,51529.0000,0.0000,0.0000
5.3180,-0.2893,-0.4642,1101.0000,51530.0000,0.0000,0.0000
5.3553,-0.3051,-0.4665,1014.0000,51531.0000,0.0000,0.0000
5.3225,-0.3161,-0.4637,964.0000,51532.0000,0.0000,0.0000
5.3335,-0.3291,-0.4647,857.0000,51533.0000,0.0000,0.0000
5.3259,-0.3425,-0.4641,618.0000,51534.0000,0.0000,0.0000
5.3232,-0.3556,-0.4639,1558.0000,51535.0000,0.0000,0.0000
5.3428,-0.3692,-0.4657,917.0000,51536.0000,0.0000,0.0000
5.3361,-0.3821,-0.4652,887.0000,51537.0000,0.0000,0.0000
5.3526,-0.3966,-0.4667,972.0000,51538.0000,0.0000,0.0000
5.3673,-0.4100,-0.4681,717.0000,51539.0000,0.0000,0.0000
5.3886,-0.4251,-0.4700,681.0000,51540.0000,0.0000,0.0000
5.3605,-0.4364,-0.4676,496.0000,51541.0000,0.0000,0.0000
5.3896,-0.4511,-0.4703,868.0000,51542.0000,0.0000,0.0000
5.3914,-0.4653,-0.4705,1117.0000,51543.0000,0.0000,0.0000
5.4135,-0.4802,-0.4726,572.0000,51544.0000,0.0000,0.0000
5.4299,-0.4941,-0.4741,853.0000,51545.0000,0.0000,0.0000
5.4200,-0.5074,-0.4733,907.0000,51546.0000,0.0000,0.0000
5.4430,-0.5226,-0.4754,654.0000,51547.0000,0.0000,0.0000
5.4816,-0.5389,-0.4789,301.0000,51548.0000,0.0000,0.0000
5.5199,-0.5569,-0.4824,25.0000,51549.0000,0.0000,0.0000
16.8784,-1.6911,-1.4753,78.0000,51550.0000,0.0000,0.0000
16.8803,-1.7306,-1.4758,74.0000,51551.0000,0.0000,0.0000
16.8594,-1.7726,-1.4744,68.0000,51552.0000,0.0000,0.0000
16.8095,-1.8097,-1.4704,120.0000,51553.0000,0.0000,0.0000
16.8044,-1.8483,-1.4703,89.0000,51554.0000,0.0000,0.0000
16.8433,-1.8950,-1.4741,112.0000,51555.0000,0.0000,0.0000
16.8473,-1.9380,-1.4749,103.0000,51556.0000,0.0000,0.0000
16.8429,-1.9768,-1.4749,77.0000,51557.0000,0.0000,0.0000
16.8310,-2.0195,-1.4743,60.0000,51558.0000,0.0000,0.0000
16.8001,-2.0567,-1.4834,72.0000,51559.0000,0.0000,0.0000
16.7857,-2.0942,-1.4826,61.0000,51560.0000,0.0000,0.0000
16.7861,-2.1384,-1.4831,63.0000,51561.0000,0.0000,0.0000
16.7867,-2.1793,-1.4836,66.0000,51562.0000,0.0000,0.0000
16.7277,-2.2109,-1.4788,54.0000,51563.0000,0.0000,0.0000
16.7509,-2.2580,-1.4814,74.0000,51564.0000,0.0000,0.0000
16.7600,-2.3001,-1.4827,325.0000,51565.0000,0.0000,0.0000
16.7191,-2.3338,-1.4795,565.0000,51566.0000,0.0000,0.0000
16.6861,-2.3733,-1.4771,572.0000,51567.0000,0.0000,0.0000
16.6185,-2.4060,-1.4717,108.0000,51568.0000,0.0000,0.0000
16.7189,-2.4597,-1.4810,67.0000,51569.0000,0.0000,0.0000
16.7301,-2.5039,-1.4826,72.0000,51570.0000,0.0000,0.0000
16.7162,-2.5444,-1.4819,72.0000,51571.0000,0.0000,0.0000
0.0000,-0.0000,-0.0000,0.0000,51572.0000,0.0000,0.0000
16.5717,-2.6056,-1.4621,130.0000,51573.0000,0.0000,0.0000
16.5193,-2.6380,-1.4580,115.0000,51574.0000,0.0000,0.0000
16.6737,-2.7018,-1.4722,67.0000,51575.0000,0.0000,0.0000
16.6667,-2.7449,-1.4722,63.0000,51576.0000,0.0000,0.0000
16.6688,-2.7863,-1.4729,65.0000,51577.0000,0.0000,0.0000
16.6298,-2.8192,-1.4701,52.0000,51578.0000,0.0000,0.0000
16.6292,-2.8633,-1.4707,63.0000,51579.0000,0.0000,0.0000
16.6147,-2.9019,-1.4700,69.0000,51580.0000,0.0000,0.0000
16.6387,-2.9455,-1.4727,68.0000,51581.0000,0.0000,0.0000
16.6454,-2.9911,-1.4740,68.0000,51582.0000,0.0000,0.0000
0.0000,-0.0000,-0.0000,0.0000,51583.0000,0.0000,0.0000
16.6141,-3.0661,-1.4724,67.0000,51584.0000,0.0000,0.0000
16.6043,-3.1087,-1.4723,67.0000,51585.0000,0.0000,0.0000
16.6124,-3.1531,-1.4786,69.0000,51586.0000,0.0000,0.0000
16.6118,-3.1926,-1.4792,86.0000,51587.0000,0.0000,0.0000
16.6067,-3.2345,-1.4794,78.0000,51588.0000,0.0000,0.0000
16.5805,-3.2724,-1.4778,78.0000,51589.0000,0.0000,0.0000
16.5673,-3.3094,-1.4773,65.0000,51590.0000,0.0000,0.0000
16.5168,-3.3438,-1.4735,60.0000,51591.0000,0.0000,0.0000
16.5536,-3.3925,-1.4775,71.0000,51592.0000,0.0000,0.0000
16.5344,-3.4282,-1.4765,72.0000,51593.0000,0.0000,0.0000
16.5055,-3.4669,-1.4747,75.0000,51594.0000,0.0000,0.0000
16.4972,-3.5064,-1.4747,72.0000,51595.0000,0.0000,0.0000
16.5006,-3.5468,-1.4758,67.0000,51596.0000,0.0000,0.0000
16.4638,-3.5835,-1.4733,63.0000,51597.0000,0.0000,0.0000
16.4685,-3.6259,-1.4745,69.0000,51598.0000,0.0000,0.0000
16.4716,-3.6663,-1.4755,63.0000,51599.0000,0.0000,0.0000
16.4901,-3.7152,-1.4731,58.0000,51600.0000,0.0000,0.0000
16.4562,-3.7507,-1.4709,70.0000,51601.0000,0.0000,0.0000
16.4532,-3.7898,-1.4714,74.0000,51602.0000,0.0000,0.0000
16.4590,-3.8344,-1.4728,80.0000,51603.0000,0.0000,0.0000
16.4456,-3.8745,-1.4724,70.0000,51604.0000,0.0000,0.0000
16.4301,-3.9108,-1.4718,61.0000,51605.0000,0.0000,0.0000
16.4436,-3.9589,-1.4740,61.0000,51606.0000,0.0000,0.0000
16.4153,-3.9938,-1.4723,78.0000,51607.0000,0.0000,0.0000
16.3862,-4.0267,-1.4705,75.0000,51608.0000,0.0000,0.0000
16.4070,-4.0768,-1.4733,72.0000,51609.0000,0.0000,0.0000
16.4199,-4.1217,-1.4753,93.0000,51610.0000,0.0000,0.0000
16.4274,-4.1638,-1.4768,80.0000,51611.0000,0.0000,0.0000
16.4129,-4.2053,-1.4765,81.0000,51612.0000,0.0000,0.0000
16.3915,-4.2418,-1.4755,75.0000,51613.0000,0.0000,0.0000
16.3629,-4.2746,-1.4738,80.0000,51614.0000,0.0000,0.0000
16.3744,-4.3228,-1.4758,77.0000,51615.0000,0.0000,0.0000
16.3885,-4.3686,-1.4780,81.0000,51616.0000,0.0000,0.0000
16.3588,-4.4010,-1.4763,72.0000,51617.0000,0.0000,0.0000
16.3512,-4.4443,-1.4766,78.0000,51618.0000,0.0000,0.0000
16.3476,-4.4871,-1.4773,67.0000,51619.0000,0.0000,0.0000
16.3607,-4.5312,-1.4794,73.0000,51620.0000,0.0000,0.0000
16.3241,-4.5649,-1.4771,89.0000,51621.0000,0.0000,0.0000
16.3231,-4.6085,-1.4780,76.0000,51622.0000,0.0000,0.0000
16.3041,-4.6436,-1.4773,74.0000,51623.0000,0.0000,0.0000
16.2734,-4.6805,-1.4756,77.0000,51624.0000,0.0000,0.0000
16.2818,-4.7251,-1.4773,80.0000,51625.0000,0.0000,0.0000
16.2877,-4.7675,-1.4789,77.0000,51626.0000,0.0000,0.0000
16.2866,-4.8129,-1.4799,92.0000,51627.0000,0.0000,0.0000
16.2685,-4.8500,-1.4908,90.0000,51628.0000,0.0000,0.0000
16.2378,-4.8816,-1.4890,81.0000,51629.0000,0.0000,0.0000
16.2354,-4.9267,-1.4899,68.0000,51630.0000,0.0000,0.0000
16.2162,-4.9633,-1.4892,81.0000,51631.0000,0.0000,0.0000
16.1797,-4.9929,-1.4869,94.0000,51632.0000,0.0000,0.0000
16.2086,-5.0477,-1.4908,78.0000,51633.0000,0.0000,0.0000
0.0000,-0.0000,-0.0000,0.0000,51634.0000,0.0000,0.0000
16.1987,-5.1282,-1.4921,87.0000,51635.0000,0.0000,0.0000
16.1799,-5.1683,-1.4915,80.0000,51636.0000,0.0000,0.0000
16.1420,-5.2006,-1.4892,70.0000,51637.0000,0.0000,0.0000
16.1551,-5.2458,-1.4915,77.0000,51638.0000,0.0000,0.0000
16.1489,-5.2901,-1.4922,66.0000,51639.0000,0.0000,0.0000
16.1168,-5.3224,-1.4904,65.0000,51640.0000,0.0000,0.0000
16.1316,-5.3684,-1.4896,67.0000,51641.0000,0.0000,0.0000
16.1076,-5.4067,-1.4887,73.0000,51642.0000,0.0000,0.0000
16.1057,-5.4491,-1.4897,80.0000,51643.0000,0.0000,0.0000
16.0932,-5.4861,-1.4897,74.0000,51644.0000,0.0000,0.0000
16.0928,-5.5325,-1.4910,86.0000,51645.0000,0.0000,0.0000
16.0888,-5.5742,-1.4919,90.0000,51646.0000,0.0000,0.0000
16.0401,-5.5988,-1.4885,85.0000,51647.0000,0.0000,0.0000
16.0357,-5.6438,-1.4895,98.0000,51648.0000,0.0000,0.0000
16.0387,-5.6880,-1.4910,68.0000,51649.0000,0.0000,0.0000
15.9875,-5.7131,-1.4875,87.0000,51650.0000,0.0000,0.0000
16.0173,-5.7687,-1.4916,91.0000,51651.0000,0.0000,0.0000
16.0029,-5.8086,-1.4916,98.0000,51652.0000,0.0000,0.0000
15.9868,-5.8444,-1.4914,82.0000,51653.0000,0.0000,0.0000
15.9827,-5.8898,-1.4924,91.0000,51654.0000,0.0000,0.0000
15.9628,-5.9260,-1.4951,77.0000,51655.0000,0.0000,0.0000
15.9510,-5.9634,-1.4953,75.0000,51656.0000,0.0000,0.0000
15.9274,-6.0016,-1.4945,75.0000,51657.0000,0.0000,0.0000
15.9185,-6.0418,-1.4950,64.0000,51658.0000,0.0000,0.0000
15.9028,-6.0777,-1.4949,78.0000,51659.0000,0.0000,0.0000
15.8680,-6.1115,-1.4931,90.0000,51660.0000,0.0000,0.0000
15.8969,-6.1664,-1.4972,84.0000,51661.0000,0.0000,0.0000
15.8710,-6.1983,-1.4961,68.0000,51662.0000,0.0000,0.0000
15.8576,-6.2405,-1.4963,75.0000,51663.0000,0.0000,0.0000
15.8400,-6.2774,-1.4961,81.0000,51664.0000,0.0000,0.0000
15.7957,-6.3020,-1.4932,74.0000,51665.0000,0.0000,0.0000
15.7885,-6.3465,-1.4941,84.0000,51666.0000,0.0000,0.0000
15.8160,-6.4033,-1.4982,87.0000,51667.0000,0.0000,0.0000
15.7949,-6.4371,-1.4976,77.0000,51668.0000,0.0000,0.0000
15.7873,-6.4798,-1.4951,75.0000,51669.0000,0.0000,0.0000
15.7774,-6.5218,-1.4957,70.0000,51670.0000,0.0000,0.0000
15.7274,-6.5435,-1.4924,92.0000,51671.0000,0.0000,0.0000
15.7455,-6.5988,-1.4957,78.0000,51672.0000,0.0000,0.0000
15.7135,-6.6298,-1.4942,80.0000,51673.0000,0.0000,0.0000
15.7090,-6.6705,-1.4952,79.0000,51674.0000,0.0000,0.0000
15.6998,-6.7145,-1.4960,95.0000,51675.0000,0.0000,0.0000
15.6730,-6.7475,-1.4949,88.0000,51676.0000,0.0000,0.0000
15.6522,-6.7813,-1.4944,89.0000,51677.0000,0.0000,0.0000
15.6668,-6.8357,-1.4975,86.0000,51678.0000,0.0000,0.0000
15.6317,-6.8651,-1.4957,82.0000,51679.0000,0.0000,0.0000
15.6239,-6.9046,-1.4965,89.0000,51680.0000,0.0000,0.0000
15.5954,-6.9402,-1.4954,93.0000,51681.0000,0.0000,0.0000
15.5701,-6.9755,-1.4947,90.0000,51682.0000,0.0000,0.0000
15.5421,-7.0060,-1.4985,77.0000,51683.0000,0.0000,0.0000
15.5513,-7.0567,-1.5010,75.0000,51684.0000,0.0000,0.0000
15.5364,-7.0967,-1.5013,77.0000,51685.0000,0.0000,0.0000
15.5139,-7.1296,-1.5007,65.0000,51686.0000,0.0000,0.0000
15.4996,-7.1699,-1.5010,67.0000,51687.0000,0.0000,0.0000
15.4712,-7.2035,-1.5000,67.0000,51688.0000,0.0000,0.0000
15.4291,-7.2272,-1.4975,75.0000,51689.0000,0.0000,0.0000
15.4227,-7.2729,-1.4987,72.0000,51690.0000,0.0000,0.0000
15.4246,-7.3190,-1.5006,79.0000,51691.0000,0.0000,0.0000
0.0000,-0.0000,-0.0000,0.0000,51692.0000,0.0000,0.0000
15.3432,-7.3725,-1.4962,70.0000,51693.0000,0.0000,0.0000
15.3343,-7.4135,-1.4970,73.0000,51694.0000,0.0000,0.0000
15.3347,-7.4572,-1.4987,80.0000,51695.0000,0.0000,0.0000
15.3208,-7.4995,-1.4976,75.0000,51696.0000,0.0000,0.0000
15.3029,-7.5362,-1.4976,74.0000,51697.0000,0.0000,0.0000
15.2410,-7.5494,-1.4932,74.0000,51698.0000,0.0000,0.0000
15.2407,-7.5984,-1.4951,75.0000,51699.0000,0.0000,0.0000
15.2113,-7.6311,-1.4941,89.0000,51700.0000,0.0000,0.0000
15.1755,-7.6569,-1.4923,85.0000,51701.0000,0.0000,0.0000
15.1738,-7.7035,-1.4940,82.0000,51702.0000,0.0000,0.0000
15.1390,-7.7334,-1.4925,78.0000,51703.0000,0.0000,0.0000
15.1420,-7.7788,-1.4945,73.0000,51704.0000,0.0000,0.0000
15.0839,-7.7984,-1.4908,71.0000,51705.0000,0.0000,0.0000
15.0626,-7.8332,-1.4905,76.0000,51706.0000,0.0000,0.0000
15.0411,-7.8660,-1.4902,77.0000,51707.0000,0.0000,0.0000
15.0320,-7.9108,-1.4913,87.0000,51708.0000,0.0000,0.0000
15.0182,-7.9495,-1.4918,87.0000,51709.0000,0.0000,0.0000
14.9844,-7.9758,-1.4919,78.0000,51710.0000,0.0000,0.0000
14.9534,-8.0091,-1.4909,77.0000,51711.0000,0.0000,0.0000
14.9205,-8.0375,-1.4895,78.0000,51712.0000,0.0000,0.0000
14.8841,-8.0621,-1.4877,67.0000,51713.0000,0.0000,0.0000
14.8837,-8.1118,-1.4897,77.0000,51714.0000,0.0000,0.0000
14.8635,-8.1488,-1.4897,78.0000,51715.0000,0.0000,0.0000
14.8439,-8.1807,-1.4896,86.0000,51716.0000,0.0000,0.0000
14.8321,-8.2242,-1.4905,80.0000,51717.0000,0.0000,0.0000
14.7563,-8.2304,-1.4850,81.0000,51718.0000,0.0000,0.0000
14.7374,-8.2644,-1.4850,74.0000,51719.0000,0.0000,0.0000
14.7440,-8.3182,-1.4878,87.0000,51720.0000,0.0000,0.0000
14.7156,-8.3488,-1.4869,64.0000,51721.0000,0.0000,0.0000
14.7066,-8.3884,-1.4880,53.0000,51722.0000,0.0000,0.0000
14.6697,-8.4177,-1.4864,75.0000,51723.0000,0.0000,0.0000
14.6505,-8.4534,-1.4849,80.0000,51724.0000,0.0000,0.0000
14.6176,-8.4793,-1.4835,69.0000,51725.0000,0.0000,0.0000
14.6041,-8.5220,-1.4844,80.0000,51726.0000,0.0000,0.0000
14.5786,-8.5541,-1.4838,65.0000,51727.0000,0.0000,0.0000
14.5783,-8.5989,-1.4858,66.0000,51728.0000,0.0000,0.0000
14.5409,-8.6277,-1.4843,68.0000,51729.0000,0.0000,0.0000
14.5228,-8.6640,-1.4845,72.0000,51730.0000,0.0000,0.0000
14.4904,-8.6899,-1.4832,74.0000,51731.0000,0.0000,0.0000
14.4587,-8.7219,-1.4823,81.0000,51732.0000,0.0000,0.0000
14.4420,-8.7609,-1.4828,81.0000,51733.0000,0.0000,0.0000
14.4418,-8.8063,-1.4849,82.0000,51734.0000,0.0000,0.0000
14.4273,-8.8468,-1.4856,83.0000,51735.0000,0.0000,0.0000
14.3920,-8.8746,-1.4843,78.0000,51736.0000,0.0000,0.0000
14.3402,-8.8882,-1.4810,83.0000,51737.0000,0.0000,0.0000
14.3030,-8.9165,-1.4926,100.0000,51738.0000,0.0000,0.0000
14.2775,-8.9482,-1.4922,123.0000,51739.0000,0.0000,0.0000
14.2734,-8.9914,-1.4939,140.0000,51740.0000,0.0000,0.0000
14.2584,-9.0335,-1.4947,139.0000,51741.0000,0.0000,0.0000
14.2253,-9.0603,-1.4935,198.0000,51742.0000,0.0000,0.0000
14.2233,-9.1051,-1.4955,149.0000,51743.0000,0.0000,0.0000
14.2030,-9.1440,-1.4959,173.0000,51744.0000,0.0000,0.0000
14.2048,-9.1933,-1.4984,150.0000,51745.0000,0.0000,0.0000
11.7917,-7.6744,-1.2457,28.0000,51746.0000,0.0000,0.0000
11.7304,-7.6778,-1.2413,54.0000,51747.0000,0.0000,0.0000
11.6852,-7.6899,-1.2385,44.0000,51748.0000,0.0000,0.0000
11.6286,-7.6911,-1.2344,60.0000,51749.0000,0.0000,0.0000
11.5348,-7.6706,-1.2264,40.0000,51750.0000,0.0000,0.0000
11.4270,-7.6402,-1.2130,49.0000,51751.0000,0.0000,0.0000
11.3989,-7.6594,-1.2119,240.0000,51752.0000,0.0000,0.0000
0.0000,-0.0000,-0.0000,0.0000,51753.0000,0.0000,0.0000
11.4517,-7.7778,-1.2216,77.0000,51754.0000,0.0000,0.0000
11.4492,-7.8145,-1.2232,79.0000,51755.0000,0.0000,0.0000
11.4282,-7.8436,-1.2231,57.0000,51756.0000,0.0000,0.0000
11.4166,-7.8759,-1.2239,52.0000,51757.0000,0.0000,0.0000
11.4025,-7.9049,-1.2244,45.0000,51758.0000,0.0000,0.0000
11.3749,-7.9294,-1.2236,45.0000,51759.0000,0.0000,0.0000
10.9005,-7.6386,-1.1745,33.0000,51760.0000,0.0000,0.0000
10.7946,-7.6016,-1.1650,33.0000,51761.0000,0.0000,0.0000
10.7042,-7.5796,-1.1573,37.0000,51762.0000,0.0000,0.0000
10.6464,-7.5771,-1.1530,35.0000,51763.0000,0.0000,0.0000
10.5894,-7.5734,-1.1487,37.0000,51764.0000,0.0000,0.0000
10.5259,-7.5693,-1.1390,38.0000,51765.0000,0.0000,0.0000
10.4486,-7.5534,-1.1326,30.0000,51766.0000,0.0000,0.0000
10.3777,-7.5386,-1.1268,26.0000,51767.0000,0.0000,0.0000
10.3385,-7.5496,-1.1246,33.0000,51768.0000,0.0000,0.0000
10.2648,-7.5351,-1.1186,31.0000,51769.0000,0.0000,0.0000
10.1926,-7.5184,-1.1126,34.0000,51770.0000,0.0000,0.0000
10.1442,-7.5234,-1.1094,25.0000,51771.0000,0.0000,0.0000
10.0879,-7.5192,-1.1053,30.0000,51772.0000,0.0000,0.0000
10.0364,-7.5168,-1.1015,37.0000,51773.0000,0.0000,0.0000
9.9913,-7.5235,-1.0987,41.0000,51774.0000,0.0000,0.0000
9.9430,-7.5246,-1.0953,47.0000,51775.0000,0.0000,0.0000
9.9319,-7.5521,-1.0960,68.0000,51776.0000,0.0000,0.0000
9.8938,-7.5637,-1.0939,55.0000,51777.0000,0.0000,0.0000
9.8626,-7.5773,-1.0925,69.0000,51778.0000,0.0000,0.0000
9.8329,-7.5906,-1.0899,199.0000,51779.0000,0.0000,0.0000
9.8056,-7.6100,-1.0891,95.0000,51780.0000,0.0000,0.0000
9.7721,-7.6231,-1.0875,68.0000,51781.0000,0.0000,0.0000
9.7660,-7.6530,-1.0887,61.0000,51782.0000,0.0000,0.0000
9.5657,-7.5365,-1.0685,34.0000,51783.0000,0.0000,0.0000
9.7875,-7.7502,-1.0954,57.0000,51784.0000,0.0000,0.0000
9.8878,-7.8663,-1.1087,128.0000,51785.0000,0.0000,0.0000
9.8743,-7.8958,-1.1093,168.0000,51786.0000,0.0000,0.0000
9.9656,-8.0092,-1.1218,150.0000,51787.0000,0.0000,0.0000
9.9093,-8.0016,-1.1176,163.0000,51788.0000,0.0000,0.0000
9.7971,-7.9532,-1.1072,213.0000,51789.0000,0.0000,0.0000
9.8082,-8.0012,-1.1106,129.0000,51790.0000,0.0000,0.0000
9.9096,-8.1216,-1.1242,144.0000,51791.0000,0.0000,0.0000
9.8150,-8.0867,-1.1158,158.0000,51792.0000,0.0000,0.0000
0.0000,-0.0000,-0.0000,0.0000,51793.0000,0.0000,0.0000
9.7474,-8.1082,-1.1186,438.0000,51794.0000,0.0000,0.0000
9.7175,-8.1259,-1.1175,335.0000,51795.0000,0.0000,0.0000
9.6928,-8.1448,-1.1169,264.0000,51796.0000,0.0000,0.0000
9.6681,-8.1621,-1.1162,326.0000,51797.0000,0.0000,0.0000
9.6671,-8.2041,-1.1186,304.0000,51798.0000,0.0000,0.0000
9.6600,-8.2395,-1.1201,204.0000,51799.0000,0.0000,0.0000
9.7217,-8.3306,-1.1295,144.0000,51800.0000,0.0000,0.0000
9.7231,-8.3738,-1.1321,78.0000,51801.0000,0.0000,0.0000
9.6868,-8.3846,-1.1303,57.0000,51802.0000,0.0000,0.0000
9.7050,-8.4394,-1.1346,162.0000,51803.0000,0.0000,0.0000
9.6986,-8.4779,-1.1364,270.0000,51804.0000,0.0000,0.0000
9.6644,-8.4890,-1.1348,59.0000,51805.0000,0.0000,0.0000
9.7034,-8.5626,-1.1417,24.0000,51806.0000,0.0000,0.0000
12.8070,-11.3521,-1.5037,132.0000,51807.0000,0.0000,0.0000
10.3111,-9.1889,-1.2132,13.0000,51808.0000,0.0000,0.0000
10.2384,-9.1666,-1.2071,47.0000,51809.0000,0.0000,0.0000
10.1836,-9.1651,-1.2035,142.0000,51810.0000,0.0000,0.0000
9.5939,-8.6774,-1.1362,72.0000,51811.0000,0.0000,0.0000
9.5790,-8.7040,-1.1368,117.0000,51812.0000,0.0000,0.0000
10.0261,-9.1565,-1.1927,269.0000,51813.0000,0.0000,0.0000
9.9789,-9.1592,-1.1898,266.0000,51814.0000,0.0000,0.0000
9.9114,-9.1393,-1.1842,259.0000,51815.0000,0.0000,0.0000
9.8514,-9.1296,-1.1798,255.0000,51816.0000,0.0000,0.0000
9.8145,-9.1409,-1.1781,264.0000,51817.0000,0.0000,0.0000
9.7657,-9.1376,-1.1747,349.0000,51818.0000,0.0000,0.0000
9.6960,-9.1196,-1.1692,338.0000,51819.0000,0.0000,0.0000
9.6561,-9.1257,-1.1734,345.0000,51820.0000,0.0000,0.0000
9.6316,-9.1446,-1.1729,281.0000,51821.0000,0.0000,0.0000
