10.8073,-9.0784,1.0195,195.0000,9796.0000,1.0000,0.0000
10.7400,-9.0677,1.0153,187.0000,9797.0000,1.0000,0.0000
10.6858,-9.0624,1.0121,148.0000,9798.0000,1.0000,0.0000
10.6201,-9.0541,1.0081,169.0000,9799.0000,1.0000,0.0000
10.5657,-9.0533,1.0050,235.0000,9800.0000,1.0000,0.0000
10.5146,-9.0516,1.0022,231.0000,9801.0000,1.0000,0.0000
10.4654,-9.0565,0.9997,192.0000,9802.0000,1.0000,0.0000
10.4047,-9.0477,0.9959,231.0000,9803.0000,1.0000,0.0000
10.3604,-9.0512,0.9937,255.0000,9804.0000,1.0000,0.0000
0.0000,-0.0000,0.0000,0.0000,9805.0000,0.0000,0.0000
10.2751,-9.0673,0.9898,337.0000,9806.0000,1.0000,0.0000
10.2520,-9.0890,0.9896,476.0000,9807.0000,1.0000,0.0000
10.2162,-9.1045,0.9884,786.0000,9808.0000,1.0000,0.0000
10.1617,-9.0998,0.9852,635.0000,9809.0000,1.0000,0.0000
10.1053,-9.0913,0.9818,815.0000,9810.0000,1.0000,0.0000
10.0572,-9.0952,0.9794,704.0000,9811.0000,1.0000,0.0000
10.0087,-9.0951,0.9768,629.0000,9812.0000,1.0000,0.0000
9.9676,-9.0997,0.9748,760.0000,9813.0000,1.0000,0.0000
9.8938,-9.0795,0.9699,711.0000,9814.0000,1.0000,0.0000
9.8561,-9.0903,0.9684,694.0000,9815.0000,1.0000,0.0000
9.8074,-9.0871,0.9657,783.0000,9816.0000,1.0000,0.0000
9.7441,-9.0738,0.9616,662.0000,9817.0000,1.0000,0.0000
9.6958,-9.0741,0.9591,678.0000,9818.0000,1.0000,0.0000
9.6516,-9.0744,0.9568,766.0000,9819.0000,1.0000,0.0000
9.5865,-9.0602,0.9476,779.0000,9820.0000,1.0000,0.0000
9.5182,-9.0390,0.9430,598.0000,9821.0000,1.0000,0.0000
9.4021,-8.9702,0.9335,910.0000,9822.0000,1.0000,0.0000
9.3515,-8.9683,0.9308,1651.0000,9823.0000,1.0000,0.0000
9.3673,-9.0264,0.9345,798.0000,9824.0000,1.0000,0.0000
9.3570,-9.0581,0.9355,690.0000,9825.0000,1.0000,0.0000
9.2861,-9.0362,0.9308,785.0000,9826.0000,1.0000,0.0000
9.2617,-9.0557,0.9305,699.0000,9827.0000,1.0000,0.0000
9.2096,-9.0463,0.9273,745.0000,9828.0000,1.0000,0.0000
9.1681,-9.0523,0.9255,687.0000,9829.0000,1.0000,0.0000
9.1193,-9.0491,0.9228,692.0000,9830.0000,1.0000,0.0000
9.0736,-9.0454,0.9203,721.0000,9831.0000,1.0000,0.0000
9.0049,-9.0218,0.9156,746.0000,9832.0000,1.0000,0.0000
8.9736,-9.0353,0.9147,752.0000,9833.0000,1.0000,0.0000
8.9350,-9.0379,0.9129,761.0000,9834.0000,1.0000,0.0000
8.8720,-9.0208,0.9088,750.0000,9835.0000,1.0000,0.0000
8.8415,-9.0330,0.9079,710.0000,9836.0000,1.0000,0.0000
8.8031,-9.0352,0.9061,716.0000,9837.0000,1.0000,0.0000
8.7559,-9.0335,0.9036,760.0000,9838.0000,1.0000,0.0000
8.6971,-9.0160,0.8998,806.0000,9839.0000,1.0000,0.0000
8.6716,-9.0310,0.8993,717.0000,9840.0000,1.0000,0.0000
8.6207,-9.0246,0.8964,731.0000,9841.0000,1.0000,0.0000
8.5668,-9.0114,0.8931,788.0000,9842.0000,1.0000,0.0000
8.5320,-9.0163,0.8916,809.0000,9843.0000,1.0000,0.0000
8.4780,-9.0057,0.8884,934.0000,9844.0000,1.0000,0.0000
8.4277,-8.9955,0.8854,747.0000,9845.0000,1.0000,0.0000
8.3838,-8.9900,0.8829,741.0000,9846.0000,1.0000,0.0000
8.3453,-8.9953,0.8813,787.0000,9847.0000,1.0000,0.0000
8.3149,-9.0073,0.8828,750.0000,9848.0000,1.0000,0.0000
8.2684,-8.9985,0.8801,692.0000,9849.0000,1.0000,0.0000
8.2263,-8.9975,0.8780,899.0000,9850.0000,1.0000,0.0000
8.1901,-9.0029,0.8765,802.0000,9851.0000,1.0000,0.0000
8.1544,-9.0052,0.8749,815.0000,9852.0000,1.0000,0.0000
8.0952,-8.9865,0.8710,730.0000,9853.0000,1.0000,0.0000
8.0515,-8.9812,0.8686,820.0000,9854.0000,1.0000,0.0000
8.0069,-8.9729,0.8660,788.0000,9855.0000,1.0000,0.0000
7.9720,-8.9805,0.8647,771.0000,9856.0000,1.0000,0.0000
7.9428,-8.9908,0.8639,802.0000,9857.0000,1.0000,0.0000
7.8919,-8.9747,0.8606,715.0000,9858.0000,1.0000,0.0000
7.8411,-8.9636,0.8576,717.0000,9859.0000,1.0000,0.0000
7.8126,-8.9743,0.8568,816.0000,9860.0000,1.0000,0.0000
7.7709,-8.9680,0.8545,832.0000,9861.0000,1.0000,0.0000
7.7129,-8.9479,0.8450,711.0000,9862.0000,1.0000,0.0000
7.6862,-8.9619,0.8445,709.0000,9863.0000,1.0000,0.0000
7.6608,-8.9722,0.8439,845.0000,9864.0000,1.0000,0.0000
7.6054,-8.9542,0.8403,826.0000,9865.0000,1.0000,0.0000
7.5768,-8.9657,0.8396,1115.0000,9866.0000,1.0000,0.0000
7.5317,-8.9540,0.8369,786.0000,9867.0000,1.0000,0.0000
7.4869,-8.9459,0.8344,814.0000,9868.0000,1.0000,0.0000
7.4503,-8.9474,0.8328,810.0000,9869.0000,1.0000,0.0000
7.4160,-8.9480,0.8312,861.0000,9870.0000,1.0000,0.0000
7.3706,-8.9401,0.8287,760.0000,9871.0000,1.0000,0.0000
7.3337,-8.9390,0.8270,775.0000,9872.0000,1.0000,0.0000
7.3083,-8.9498,0.8264,984.0000,9873.0000,1.0000,0.0000
7.2580,-8.9355,0.8233,821.0000,9874.0000,1.0000,0.0000
7.2127,-8.9233,0.8206,809.0000,9875.0000,1.0000,0.0000
7.1820,-8.9271,0.8172,855.0000,9876.0000,1.0000,0.0000
0.0000,-0.0000,0.0000,0.0000,9877.0000,0.0000,0.0000
7.1071,-8.9248,0.8138,787.0000,9878.0000,1.0000,0.0000
7.0793,-8.9319,0.8129,757.0000,9879.0000,1.0000,0.0000
7.0315,-8.9189,0.8101,800.0000,9880.0000,1.0000,0.0000
6.9985,-8.9226,0.8088,808.0000,9881.0000,1.0000,0.0000
6.9714,-8.9303,0.8080,763.0000,9882.0000,1.0000,0.0000
6.9261,-8.9199,0.8055,814.0000,9883.0000,1.0000,0.0000
6.9012,-8.9318,0.8051,793.0000,9884.0000,1.0000,0.0000
6.8587,-8.9191,0.8025,809.0000,9885.0000,1.0000,0.0000
6.8202,-8.9168,0.8007,851.0000,9886.0000,1.0000,0.0000
6.7812,-8.9099,0.7986,791.0000,9887.0000,1.0000,0.0000
6.7401,-8.8983,0.7961,721.0000,9888.0000,1.0000,0.0000
6.7060,-8.9010,0.7938,827.0000,9889.0000,1.0000,0.0000
6.6707,-8.8984,0.7921,976.0000,9890.0000,1.0000,0.0000
6.6450,-8.9067,0.7915,947.0000,9891.0000,1.0000,0.0000
6.6068,-8.9035,0.7897,819.0000,9892.0000,1.0000,0.0000
6.5699,-8.8982,0.7878,981.0000,9893.0000,1.0000,0.0000
6.5414,-8.9023,0.7868,730.0000,9894.0000,1.0000,0.0000
6.4942,-8.8862,0.7839,848.0000,9895.0000,1.0000,0.0000
6.4629,-8.8898,0.7828,789.0000,9896.0000,1.0000,0.0000
6.4339,-8.8928,0.7817,807.0000,9897.0000,1.0000,0.0000
6.4072,-8.9025,0.7812,794.0000,9898.0000,1.0000,0.0000
6.3703,-8.8979,0.7794,879.0000,9899.0000,1.0000,0.0000
6.3391,-8.8974,0.7780,795.0000,9900.0000,1.0000,0.0000
6.3037,-8.8963,0.7765,905.0000,9901.0000,1.0000,0.0000
6.2678,-8.8908,0.7747,849.0000,9902.0000,1.0000,0.0000
6.2346,-8.8869,0.7710,882.0000,9903.0000,1.0000,0.0000
6.1977,-8.8831,0.7693,871.0000,9904.0000,1.0000,0.0000
6.1514,-8.8620,0.7662,714.0000,9905.0000,1.0000,0.0000
6.1232,-8.8649,0.7652,870.0000,9906.0000,1.0000,0.0000
6.0937,-8.8711,0.7644,805.0000,9907.0000,1.0000,0.0000
6.0587,-8.8656,0.7626,873.0000,9908.0000,1.0000,0.0000
6.0285,-8.8650,0.7614,827.0000,9909.0000,1.0000,0.0000
5.9996,-8.8717,0.7606,723.0000,9910.0000,1.0000,0.0000
5.9584,-8.8584,0.7582,746.0000,9911.0000,1.0000,0.0000
5.9300,-8.8599,0.7572,751.0000,9912.0000,1.0000,0.0000
5.8949,-8.8552,0.7555,867.0000,9913.0000,1.0000,0.0000
5.8686,-8.8634,0.7550,764.0000,9914.0000,1.0000,0.0000
5.8348,-8.8566,0.7532,677.0000,9915.0000,1.0000,0.0000
5.8039,-8.8594,0.7522,759.0000,9916.0000,1.0000,0.0000
5.7661,-8.8479,0.7531,745.0000,9917.0000,1.0000,0.0000
5.7267,-8.8317,0.7506,740.0000,9918.0000,1.0000,0.0000
5.7028,-8.8449,0.7504,731.0000,9919.0000,1.0000,0.0000
5.6743,-8.8470,0.7494,889.0000,9920.0000,1.0000,0.0000
5.6508,-8.8552,0.7490,763.0000,9921.0000,1.0000,0.0000
5.6091,-8.8402,0.7465,823.0000,9922.0000,1.0000,0.0000
5.5921,-8.8602,0.7471,1076.0000,9923.0000,1.0000,0.0000
5.5479,-8.8351,0.7439,868.0000,9924.0000,1.0000,0.0000
5.5152,-8.8337,0.7426,816.0000,9925.0000,1.0000,0.0000
5.4843,-8.8312,0.7412,1176.0000,9926.0000,1.0000,0.0000
5.4584,-8.8347,0.7405,889.0000,9927.0000,1.0000,0.0000
5.4264,-8.8339,0.7392,918.0000,9928.0000,1.0000,0.0000
5.3993,-8.8391,0.7385,900.0000,9929.0000,1.0000,0.0000
5.3724,-8.8407,0.7376,949.0000,9930.0000,1.0000,0.0000
5.3466,-8.8477,0.7311,931.0000,9931.0000,1.0000,0.0000
5.3141,-8.8435,0.7297,872.0000,9932.0000,1.0000,0.0000
5.2717,-8.8189,0.7266,916.0000,9933.0000,1.0000,0.0000
5.2365,-8.8116,0.7249,834.0000,9934.0000,1.0000,0.0000
5.2040,-8.8049,0.7233,852.0000,9935.0000,1.0000,0.0000
5.1887,-8.8252,0.7240,1041.0000,9936.0000,1.0000,0.0000
5.1639,-8.8353,0.7237,892.0000,9937.0000,1.0000,0.0000
5.1154,-8.8005,0.7199,900.0000,9938.0000,1.0000,0.0000
5.1000,-8.8207,0.7206,877.0000,9939.0000,1.0000,0.0000
0.0000,0.0000,0.0000,0.0000,9940.0000,0.0000,0.0000
0.0000,0.0000,0.0000,0.0000,9941.0000,0.0000,0.0000
0.0000,0.0000,0.0000,0.0000,9942.0000,0.0000,0.0000
0.0000,0.0000,0.0000,0.0000,9943.0000,0.0000,0.0000
0.0000,0.0000,0.0000,0.0000,9944.0000,0.0000,0.0000
0.0000,0.0000,0.0000,0.0000,9945.0000,0.0000,0.0000
0.0000,0.0000,0.0000,0.0000,9946.0000,0.0000,0.0000
0.0000,0.0000,0.0000,0.0000,9947.0000,0.0000,0.0000
0.0000,0.0000,0.0000,0.0000,9948.0000,0.0000,0.0000
0.0000,0.0000,0.0000,0.0000,9949.0000,0.0000,0.0000
0.0000,0.0000,0.0000,0.0000,9950.0000,0.0000,0.0000
0.0000,0.0000,0.0000,0.0000,9951.0000,0.0000,0.0000
0.0000,0.0000,0.0000,0.0000,9952.0000,0.0000,0.0000
0.0000,0.0000,0.0000,0.0000,9953.0000,0.0000,0.0000
0.0000,0.0000,0.0000,0.0000,9954.0000,0.0000,0.0000
0.0000,0.0000,0.0000,0.0000,9955.0000,0.0000,0.0000
0.0000,0.0000,0.0000,0.0000,9956.0000,0.0000,0.0000
0.0000,0.0000,0.0000,0.0000,9957.0000,0.0000,0.0000
0.0000,0.0000,0.0000,0.0000,9958.0000,0.0000,0.0000
0.0000,0.0000,0.0000,0.0000,9959.0000,0.0000,0.0000
0.0000,0.0000,0.0000,0.0000,9960.0000,0.0000,0.0000
0.0000,0.0000,0.0000,0.0000,9961.0000,0.0000,0.0000
0.0000,0.0000,0.0000,0.0000,9962.0000,0.0000,0.0000
0.0000,0.0000,0.0000,0.0000,9963.0000,0.0000,0.0000
0.0000,0.0000,0.0000,0.0000,9964.0000,0.0000,0.0000
0.0000,0.0000,0.0000,0.0000,9965.0000,0.0000,0.0000
0.0000,0.0000,0.0000,0.0000,9966.0000,0.0000,0.0000
0.0000,0.0000,0.0000,0.0000,9967.0000,0.0000,0.0000
0.0000,0.0000,0.0000,0.0000,9968.0000,0.0000,0.0000
0.0000,0.0000,0.0000,0.0000,9969.0000,0.0000,0.0000
0.0000,0.0000,0.0000,0.0000,9970.0000,0.0000,0.0000
0.0000,0.0000,0.0000,0.0000,9971.0000,0.0000,0.0000
0.0000,0.0000,0.0000,0.0000,9972.0000,0.0000,0.0000
0.0000,0.0000,0.0000,0.0000,9973.0000,0.0000,0.0000
0.0000,0.0000,0.0000,0.0000,9974.0000,0.0000,0.0000
0.0000,0.0000,0.0000,0.0000,9975.0000,0.0000,0.0000
0.0000,0.0000,0.0000,0.0000,9976.0000,0.0000,0.0000
0.0000,0.0000,0.0000,0.0000,9977.0000,0.0000,0.0000
0.0000,0.0000,0.0000,0.0000,9978.0000,0.0000,0.0000
0.0000,0.0000,0.0000,0.0000,9979.0000,0.0000,0.0000
0.0000,0.0000,0.0000,0.0000,9980.0000,0.0000,0.0000
0.0000,0.0000,0.0000,0.0000,9981.0000,0.0000,0.0000
0.0000,0.0000,0.0000,0.0000,9982.0000,0.0000,0.0000
0.0000,0.0000,0.0000,0.0000,9983.0000,0.0000,0.0000
0.0000,0.0000,0.0000,0.0000,9984.0000,0.0000,0.0000
0.0000,0.0000,0.0000,0.0000,9985.0000,0.0000,0.0000
0.0000,0.0000,0.0000,0.0000,9986.0000,0.0000,0.0000
0.0000,0.0000,0.0000,0.0000,9987.0000,0.0000,0.0000
0.0000,0.0000,0.0000,0.0000,9988.0000,0.0000,0.0000
0.0000,0.0000,0.0000,0.0000,9989.0000,0.0000,0.0000
0.0000,0.0000,0.0000,0.0000,9990.0000,0.0000,0.0000
0.0000,0.0000,0.0000,0.0000,9991.0000,0.0000,0.0000
0.0000,0.0000,0.0000,0.0000,9992.0000,0.0000,0.0000
0.0000,0.0000,0.0000,0.0000,9993.0000,0.0000,0.0000
0.0000,0.0000,0.0000,0.0000,9994.0000,0.0000,0.0000
0.0000,0.0000,0.0000,0.0000,9995.0000,0.0000,0.0000
0.0000,0.0000,0.0000,0.0000,9996.0000,0.0000,0.0000
0.0000,0.0000,0.0000,0.0000,9997.0000,0.0000,0.0000
0.0000,0.0000,0.0000,0.0000,9998.0000,0.0000,0.0000
0.0000,0.0000,0.0000,0.0000,9999.0000,0.0000,0.0000
0.0000,0.0000,0.0000,0.0000,10000.0000,0.0000,0.0000
0.0000,0.0000,0.0000,0.0000,10001.0000,0.0000,0.0000
0.0000,0.0000,0.0000,0.0000,10002.0000,0.0000,0.0000
0.0000,0.0000,0.0000,0.0000,10003.0000,0.0000,0.0000
0.0000,0.0000,0.0000,0.0000,10004.0000,0.0000,0.0000
0.0000,0.0000,0.0000,0.0000,10005.0000,0.0000,0.0000
0.0000,0.0000,0.0000,0.0000,10006.0000,0.0000,0.0000
0.0000,0.0000,0.0000,0.0000,10007.0000,0.0000,0.0000
0.0000,0.0000,0.0000,0.0000,10008.0000,0.0000,0.0000
0.0000,0.0000,0.0000,0.0000,10009.0000,0.0000,0.0000
0.0000,0.0000,0.0000,0.0000,10010.0000,0.0000,0.0000
0.0000,0.0000,0.0000,0.0000,10011.0000,0.0000,0.0000
0.0000,0.0000,0.0000,0.0000,10012.0000,0.0000,0.0000
0.0000,0.0000,0.0000,0.0000,10013.0000,0.0000,0.0000
0.0000,0.0000,0.0000,0.0000,10014.0000,0.0000,0.0000
0.0000,0.0000,0.0000,0.0000,10015.0000,0.0000,0.0000
0.0000,0.0000,0.0000,0.0000,10016.0000,0.0000,0.0000
0.0000,0.0000,0.0000,0.0000,10017.0000,0.0000,0.0000
0.0000,0.0000,0.0000,0.0000,10018.0000,0.0000,0.0000
0.0000,0.0000,0.0000,0.0000,10019.0000,0.0000,0.0000
0.0000,0.0000,0.0000,0.0000,10020.0000,0.0000,0.0000
0.0000,0.0000,0.0000,0.0000,10021.0000,0.0000,0.0000
0.0000,0.0000,0.0000,0.0000,10022.0000,0.0000,0.0000
0.0000,0.0000,0.0000,0.0000,10023.0000,0.0000,0.0000
0.0000,0.0000,0.0000,0.0000,10024.0000,0.0000,0.0000
0.0000,0.0000,0.0000,0.0000,10025.0000,0.0000,0.0000
0.0000,0.0000,0.0000,0.0000,10026.0000,0.0000,0.0000
0.0000,0.0000,0.0000,0.0000,10027.0000,0.0000,0.0000
0.0000,0.0000,0.0000,0.0000,10028.0000,0.0000,0.0000
0.0000,0.0000,0.0000,0.0000,10029.0000,0.0000,0.0000
0.0000,0.0000,0.0000,0.0000,10030.0000,0.0000,0.0000
0.0000,0.0000,0.0000,0.0000,10031.0000,0.0000,0.0000
0.0000,0.0000,0.0000,0.0000,10032.0000,0.0000,0.0000
0.0000,0.0000,0.0000,0.0000,10033.0000,0.0000,0.0000
0.0000,0.0000,0.0000,0.0000,10034.0000,0.0000,0.0000
0.0000,0.0000,0.0000,0.0000,10035.0000,0.0000,0.0000
0.0000,0.0000,0.0000,0.0000,10036.0000,0.0000,0.0000
0.0000,0.0000,0.0000,0.0000,10037.0000,0.0000,0.0000
0.0000,0.0000,0.0000,0.0000,10038.0000,0.0000,0.0000
0.0000,0.0000,0.0000,0.0000,10039.0000,0.0000,0.0000
0.0000,0.0000,0.0000,0.0000,10040.0000,0.0000,0.0000
0.0000,0.0000,0.0000,0.0000,10041.0000,0.0000,0.0000
0.0000,0.0000,0.0000,0.0000,10042.0000,0.0000,0.0000
0.0000,0.0000,0.0000,0.0000,10043.0000,0.0000,0.0000
0.0000,0.0000,0.0000,0.0000,10044.0000,0.0000,0.0000
0.0000,0.0000,0.0000,0.0000,10045.0000,0.0000,0.0000
0.0000,0.0000,0.0000,0.0000,10046.0000,0.0000,0.0000
0.0000,0.0000,0.0000,0.0000,10047.0000,0.0000,0.0000
0.0000,0.0000,0.0000,0.0000,10048.0000,0.0000,0.0000
0.0000,0.0000,0.0000,0.0000,10049.0000,0.0000,0.0000
0.0000,0.0000,0.0000,0.0000,10050.0000,0.0000,0.0000
0.0000,0.0000,0.0000,0.0000,10051.0000,0.0000,0.0000
0.0000,0.0000,0.0000,0.0000,10052.0000,0.0000,0.0000
0.0000,0.0000,0.0000,0.0000,10053.0000,0.0000,0.0000
0.0000,0.0000,0.0000,0.0000,10054.0000,0.0000,0.0000
0.0000,0.0000,0.0000,0.0000,10055.0000,0.0000,0.0000
0.0000,0.0000,0.0000,0.0000,10056.0000,0.0000,0.0000
0.0000,0.0000,0.0000,0.0000,10057.0000,0.0000,0.0000
0.0000,0.0000,0.0000,0.0000,10058.0000,0.0000,0.0000
0.0000,0.0000,0.0000,0.0000,10059.0000,0.0000,0.0000
16.0464,27.6858,2.1770,740.0000,10060.0000,1.0000,0.0000
16.1838,27.7692,2.1866,613.0000,10061.0000,1.0000,0.0000
16.2920,27.8076,2.1926,548.0000,10062.0000,1.0000,0.0000
16.3163,27.6848,2.1862,409.0000,10063.0000,1.0000,0.0000
16.3860,27.6514,2.1867,371.0000,10064.0000,1.0000,0.0000
16.4600,27.6312,2.1881,340.0000,10065.0000,1.0000,0.0000
16.5695,27.6520,2.1931,368.0000,10066.0000,1.0000,0.0000
16.7403,27.7858,2.2069,635.0000,10067.0000,1.0000,0.0000
16.9184,27.9297,2.2216,576.0000,10068.0000,1.0000,0.0000
17.0153,27.9324,2.2252,587.0000,10069.0000,1.0000,0.0000
17.1287,27.9613,2.2309,587.0000,10070.0000,1.0000,0.0000
17.2072,27.9450,2.2327,631.0000,10071.0000,1.0000,0.0000
17.3286,27.9857,2.2394,585.0000,10072.0000,1.0000,0.0000
17.4152,27.9697,2.2416,577.0000,10073.0000,1.0000,0.0000
17.5121,27.9816,2.2458,532.0000,10074.0000,1.0000,0.0000
17.6327,28.0128,2.2520,592.0000,10075.0000,1.0000,0.0000
17.7372,28.0297,2.2567,607.0000,10076.0000,1.0000,0.0000
17.8529,28.0694,2.2633,704.0000,10077.0000,1.0000,0.0000
17.9596,28.0764,2.2676,574.0000,10078.0000,1.0000,0.0000
18.0463,28.0636,2.2700,569.0000,10079.0000,1.0000,0.0000
18.1806,28.1300,2.2788,619.0000,10080.0000,1.0000,0.0000
18.2873,28.1351,2.2830,711.0000,10081.0000,1.0000,0.0000
18.3882,28.1426,2.2872,575.0000,10082.0000,1.0000,0.0000
18.4903,28.1572,2.2918,617.0000,10083.0000,1.0000,0.0000
18.6023,28.1685,2.2967,628.0000,10084.0000,1.0000,0.0000
18.7074,28.1748,2.3010,555.0000,10085.0000,1.0000,0.0000
18.8236,28.2087,2.3073,580.0000,10086.0000,1.0000,0.0000
18.9318,28.2183,2.3119,594.0000,10087.0000,1.0000,0.0000
19.0478,28.2388,2.3175,692.0000,10088.0000,1.0000,0.0000
19.1056,28.1845,2.3167,470.0000,10089.0000,1.0000,0.0000
19.1509,28.0947,2.3133,441.0000,10090.0000,1.0000,0.0000
19.2920,28.1564,2.3222,488.0000,10091.0000,1.0000,0.0000
19.2455,27.9506,2.3089,483.0000,10092.0000,1.0000,0.0000
19.3167,27.8991,2.3088,582.0000,10093.0000,1.0000,0.0000
19.5587,28.1043,2.3197,584.0000,10094.0000,1.0000,0.0000
19.8489,28.3817,2.3464,607.0000,10095.0000,1.0000,0.0000
19.9514,28.3717,2.3499,508.0000,10096.0000,1.0000,0.0000
20.0812,28.4113,2.3571,485.0000,10097.0000,1.0000,0.0000
20.1950,28.4333,2.3628,624.0000,10098.0000,1.0000,0.0000
20.3059,28.4332,2.3672,500.0000,10099.0000,1.0000,0.0000
20.4358,28.4648,2.3740,598.0000,10100.0000,1.0000,0.0000
20.5372,28.4734,2.3785,524.0000,10101.0000,1.0000,0.0000
20.6646,28.4943,2.3847,519.0000,10102.0000,1.0000,0.0000
20.7992,28.5300,2.3921,663.0000,10103.0000,1.0000,0.0000
20.9068,28.5394,2.3969,526.0000,10104.0000,1.0000,0.0000
21.0304,28.5586,2.4029,524.0000,10105.0000,1.0000,0.0000
21.1421,28.5609,2.4075,612.0000,10106.0000,1.0000,0.0000
21.2595,28.5817,2.4134,488.0000,10107.0000,1.0000,0.0000
21.3914,28.6042,2.4131,504.0000,10108.0000,1.0000,0.0000
21.5237,28.6377,2.4203,517.0000,10109.0000,1.0000,0.0000
21.6471,28.6643,2.4267,524.0000,10110.0000,1.0000,0.0000
21.7807,28.6865,2.4334,633.0000,10111.0000,1.0000,0.0000
21.8889,28.6861,2.4378,621.0000,10112.0000,1.0000,0.0000
22.0076,28.7045,2.4437,476.0000,10113.0000,1.0000,0.0000
22.1454,28.7299,2.4507,647.0000,10114.0000,1.0000,0.0000
22.0542,28.4704,2.4331,482.0000,10115.0000,1.0000,0.0000
22.0980,28.3919,2.4307,465.0000,10116.0000,1.0000,0.0000
22.3834,28.6054,2.4539,570.0000,10117.0000,1.0000,0.0000
22.4383,28.5288,2.4522,540.0000,10118.0000,1.0000,0.0000
22.4458,28.4038,2.4458,533.0000,10119.0000,1.0000,0.0000
22.4935,28.3188,2.4433,586.0000,10120.0000,1.0000,0.0000
22.4952,28.1766,2.4498,575.0000,10121.0000,1.0000,0.0000
22.5209,28.0762,2.4455,618.0000,10122.0000,1.0000,0.0000
22.5439,27.9564,2.4402,532.0000,10123.0000,1.0000,0.0000
22.5506,27.8281,2.4337,514.0000,10124.0000,1.0000,0.0000
22.5696,27.7210,2.4288,609.0000,10125.0000,1.0000,0.0000
22.5967,27.6082,2.4241,497.0000,10126.0000,1.0000,0.0000
22.6064,27.4855,2.4180,498.0000,10127.0000,1.0000,0.0000
22.6273,27.3824,2.4135,502.0000,10128.0000,1.0000,0.0000
22.6383,27.2518,2.4072,514.0000,10129.0000,1.0000,0.0000
22.6704,27.1578,2.4037,606.0000,10130.0000,1.0000,0.0000
22.7716,27.1519,2.4078,403.0000,10131.0000,1.0000,0.0000
22.8518,27.1047,2.4088,193.0000,10132.0000,1.0000,0.0000
22.8775,27.0038,2.4047,192.0000,10133.0000,1.0000,0.0000
22.9131,26.9148,2.4017,200.0000,10134.0000,1.0000,0.0000
22.9198,26.7872,2.3818,213.0000,10135.0000,1.0000,0.0000
22.9349,26.6702,2.3765,222.0000,10136.0000,1.0000,0.0000
22.9509,26.5650,2.3718,202.0000,10137.0000,1.0000,0.0000
22.9831,26.4636,2.3681,159.0000,10138.0000,1.0000,0.0000
23.0022,26.3578,2.3635,194.0000,10139.0000,1.0000,0.0000
23.0100,26.2448,2.3581,202.0000,10140.0000,1.0000,0.0000
23.0417,26.1442,2.3544,195.0000,10141.0000,1.0000,0.0000
23.0331,26.0087,2.3472,156.0000,10142.0000,1.0000,0.0000
23.0702,25.9302,2.3449,209.0000,10143.0000,1.0000,0.0000
23.0657,25.7905,2.3376,198.0000,10144.0000,1.0000,0.0000
23.0948,25.6989,2.3343,215.0000,10145.0000,1.0000,0.0000
23.0917,25.5771,2.3281,209.0000,10146.0000,1.0000,0.0000
23.1054,25.4595,2.3228,202.0000,10147.0000,1.0000,0.0000
23.1479,25.3839,2.3209,216.0000,10148.0000,1.0000,0.0000
23.1225,25.2394,2.3126,183.0000,10149.0000,1.0000,0.0000
23.1580,25.1472,2.3096,196.0000,10150.0000,1.0000,0.0000
23.1716,25.0365,2.3047,217.0000,10151.0000,1.0000,0.0000
23.1979,24.9496,2.3017,146.0000,10152.0000,1.0000,0.0000
23.2107,24.8390,2.2968,185.0000,10153.0000,1.0000,0.0000
23.2277,24.7335,2.2924,209.0000,10154.0000,1.0000,0.0000
23.2457,24.6389,2.2885,192.0000,10155.0000,1.0000,0.0000
23.2664,24.5335,2.2843,199.0000,10156.0000,1.0000,0.0000
23.2760,24.4262,2.2795,197.0000,10157.0000,1.0000,0.0000
23.3038,24.3430,2.2768,224.0000,10158.0000,1.0000,0.0000
23.3159,24.2300,2.2718,206.0000,10159.0000,1.0000,0.0000
23.3339,24.1327,2.2679,209.0000,10160.0000,1.0000,0.0000
23.3377,24.0259,2.2629,215.0000,10161.0000,1.0000,0.0000
23.3596,23.9243,2.2590,198.0000,10162.0000,1.0000,0.0000
23.3892,23.8402,2.2467,196.0000,10163.0000,1.0000,0.0000
23.3851,23.7266,2.2411,209.0000,10164.0000,1.0000,0.0000
23.2426,23.4605,2.2216,574.0000,10165.0000,1.0000,0.0000
23.2707,23.3722,2.2187,655.0000,10166.0000,1.0000,0.0000
23.2587,23.2575,2.2127,592.0000,10167.0000,1.0000,0.0000
23.2814,23.1601,2.2092,592.0000,10168.0000,1.0000,0.0000
23.3106,23.0739,2.2065,595.0000,10169.0000,1.0000,0.0000
23.3157,22.9730,2.2020,669.0000,10170.0000,1.0000,0.0000
23.3276,22.8705,2.1977,547.0000,10171.0000,1.0000,0.0000
23.3600,22.7885,2.1954,653.0000,10172.0000,1.0000,0.0000
23.3676,22.6913,2.1912,762.0000,10173.0000,1.0000,0.0000
23.3890,22.5949,2.1877,581.0000,10174.0000,1.0000,0.0000
23.4065,22.5036,2.1843,660.0000,10175.0000,1.0000,0.0000
23.4095,22.4033,2.1798,572.0000,10176.0000,1.0000,0.0000
23.4236,22.3010,2.1757,599.0000,10177.0000,1.0000,0.0000
23.4401,22.2099,2.1723,616.0000,10178.0000,1.0000,0.0000
23.4486,22.1158,2.1684,589.0000,10179.0000,1.0000,0.0000
23.4730,22.0244,2.1654,801.0000,10180.0000,1.0000,0.0000
23.4708,21.9169,2.1603,589.0000,10181.0000,1.0000,0.0000
23.4939,21.8377,2.1578,572.0000,10182.0000,1.0000,0.0000
23.5074,21.7371,2.1539,675.0000,10183.0000,1.0000,0.0000
23.5299,21.6494,2.1510,581.0000,10184.0000,1.0000,0.0000
23.4458,21.4729,2.1388,488.0000,10185.0000,1.0000,0.0000
23.3753,21.3016,2.1275,371.0000,10186.0000,1.0000,0.0000
23.4022,21.2197,2.1252,386.0000,10187.0000,1.0000,0.0000
23.4155,21.1338,2.1219,421.0000,10188.0000,1.0000,0.0000
23.4483,21.0536,2.1200,378.0000,10189.0000,1.0000,0.0000
23.5798,21.0698,2.1182,342.0000,10190.0000,1.0000,0.0000
23.7155,21.0932,2.1260,368.0000,10191.0000,1.0000,0.0000
24.0445,21.2743,2.1505,441.0000,10192.0000,1.0000,0.0000
24.2578,21.3595,2.1650,461.0000,10193.0000,1.0000,0.0000
24.4036,21.3883,2.1737,547.0000,10194.0000,1.0000,0.0000
24.5551,21.4089,2.1822,535.0000,10195.0000,1.0000,0.0000
24.7094,21.4393,2.1914,453.0000,10196.0000,1.0000,0.0000
24.8449,21.4569,2.1990,436.0000,10197.0000,1.0000,0.0000
25.0097,21.4864,2.2087,472.0000,10198.0000,1.0000,0.0000
25.1559,21.5074,2.2170,555.0000,10199.0000,1.0000,0.0000
25.2979,21.5240,2.2250,412.0000,10200.0000,1.0000,0.0000
25.4512,21.5452,2.2337,454.0000,10201.0000,1.0000,0.0000
25.6151,21.5745,2.2434,449.0000,10202.0000,1.0000,0.0000
25.7580,21.5937,2.2516,392.0000,10203.0000,1.0000,0.0000
25.9185,21.6142,2.2607,447.0000,10204.0000,1.0000,0.0000
26.0880,21.6497,2.2710,421.0000,10205.0000,1.0000,0.0000
26.2294,21.6653,2.2789,436.0000,10206.0000,1.0000,0.0000
26.4179,21.7061,2.2904,373.0000,10207.0000,1.0000,0.0000
26.5701,21.7247,2.2991,400.0000,10208.0000,1.0000,0.0000
26.7304,21.7532,2.3087,430.0000,10209.0000,1.0000,0.0000
26.8956,21.7722,2.3180,426.0000,10210.0000,1.0000,0.0000
27.0866,21.8194,2.3300,450.0000,10211.0000,1.0000,0.0000
27.2066,21.8131,2.3360,377.0000,10212.0000,1.0000,0.0000
27.4177,21.8658,2.3493,454.0000,10213.0000,1.0000,0.0000
27.5745,21.8829,2.3582,396.0000,10214.0000,1.0000,0.0000
27.7319,21.9039,2.3674,396.0000,10215.0000,1.0000,0.0000
27.9256,21.9397,2.3790,408.0000,10216.0000,1.0000,0.0000
28.0854,21.9522,2.3880,410.0000,10217.0000,1.0000,0.0000
28.2425,21.9705,2.4005,408.0000,10218.0000,1.0000,0.0000
28.4482,22.0168,2.4133,429.0000,10219.0000,1.0000,0.0000
28.6211,22.0367,2.4233,378.0000,10220.0000,1.0000,0.0000
28.7963,22.0661,2.4339,406.0000,10221.0000,1.0000,0.0000
28.9943,22.0990,2.4457,386.0000,10222.0000,1.0000,0.0000
29.1963,22.1424,2.4583,609.0000,10223.0000,1.0000,0.0000
29.2331,22.0646,2.4571,755.0000,10224.0000,1.0000,0.0000
29.4319,22.0952,2.4690,479.0000,10225.0000,1.0000,0.0000
29.5261,22.0555,2.4725,416.0000,10226.0000,1.0000,0.0000
29.6096,22.0119,2.4752,388.0000,10227.0000,1.0000,0.0000
29.8388,22.0625,2.4896,301.0000,10228.0000,1.0000,0.0000
30.3344,22.3163,2.5265,420.0000,10229.0000,1.0000,0.0000
30.5146,22.3408,2.5372,412.0000,10230.0000,1.0000,0.0000
30.7204,22.3695,2.5495,435.0000,10231.0000,1.0000,0.0000
30.9088,22.3889,2.5569,407.0000,10232.0000,1.0000,0.0000
31.1144,22.4288,2.5696,439.0000,10233.0000,1.0000,0.0000
31.3333,22.4680,2.5831,414.0000,10234.0000,1.0000,0.0000
31.5106,22.4764,2.5930,385.0000,10235.0000,1.0000,0.0000
31.7466,22.5346,2.6082,363.0000,10236.0000,1.0000,0.0000
31.9555,22.5632,2.6207,375.0000,10237.0000,1.0000,0.0000
32.1687,22.5937,2.6336,414.0000,10238.0000,1.0000,0.0000
32.3707,22.6245,2.6459,408.0000,10239.0000,1.0000,0.0000
32.6036,22.6617,2.6601,368.0000,10240.0000,1.0000,0.0000
32.8269,22.7004,2.6739,403.0000,10241.0000,1.0000,0.0000
33.0187,22.7208,2.6852,366.0000,10242.0000,1.0000,0.0000
33.2769,22.7716,2.7014,366.0000,10243.0000,1.0000,0.0000
33.5198,22.8200,2.7167,371.0000,10244.0000,1.0000,0.0000
33.7013,22.8302,2.7272,417.0000,10245.0000,1.0000,0.0000
33.9694,22.8836,2.7480,424.0000,10246.0000,1.0000,0.0000
34.1706,22.9003,2.7599,406.0000,10247.0000,1.0000,0.0000
34.4089,22.9453,2.7748,407.0000,10248.0000,1.0000,0.0000
34.6492,22.9761,2.7894,368.0000,10249.0000,1.0000,0.0000
34.9277,23.0355,2.8072,376.0000,10250.0000,1.0000,0.0000
35.1427,23.0613,2.8202,386.0000,10251.0000,1.0000,0.0000
35.4057,23.1078,2.8367,477.0000,10252.0000,1.0000,0.0000
35.4917,23.0380,2.8390,492.0000,10253.0000,1.0000,0.0000
35.5323,22.9483,2.8380,460.0000,10254.0000,1.0000,0.0000
35.7982,22.9889,2.8545,311.0000,10255.0000,1.0000,0.0000
36.3714,23.2337,2.8957,368.0000,10256.0000,1.0000,0.0000
36.6485,23.2920,2.9135,406.0000,10257.0000,1.0000,0.0000
36.9245,23.3333,2.9307,350.0000,10258.0000,1.0000,0.0000
37.1679,23.3626,2.9244,382.0000,10259.0000,1.0000,0.0000
37.4545,23.4226,2.9427,405.0000,10260.0000,1.0000,0.0000
37.7401,23.4654,2.9604,370.0000,10261.0000,1.0000,0.0000
37.9943,23.4973,2.9759,356.0000,10262.0000,1.0000,0.0000
38.2558,23.5373,2.9921,407.0000,10263.0000,1.0000,0.0000
38.5468,23.5790,3.0101,381.0000,10264.0000,1.0000,0.0000
38.8694,23.6432,3.0307,418.0000,10265.0000,1.0000,0.0000
39.1115,23.6724,3.0455,362.0000,10266.0000,1.0000,0.0000
39.4164,23.7176,3.0645,365.0000,10267.0000,1.0000,0.0000
39.7171,23.7638,3.0832,370.0000,10268.0000,1.0000,0.0000
40.0036,23.8103,3.1012,323.0000,10269.0000,1.0000,0.0000
40.3133,23.8534,3.1204,355.0000,10270.0000,1.0000,0.0000
40.6383,23.9142,3.1411,349.0000,10271.0000,1.0000,0.0000
40.9312,23.9598,3.1595,356.0000,10272.0000,1.0000,0.0000
41.2458,24.0007,3.1790,670.0000,10273.0000,1.0000,0.0000
41.3731,23.9423,3.1844,475.0000,10274.0000,1.0000,0.0000
41.5345,23.9082,3.1926,469.0000,10275.0000,1.0000,0.0000
41.8322,23.9355,3.2107,302.0000,10276.0000,1.0000,0.0000
42.5273,24.1977,3.2596,373.0000,10277.0000,1.0000,0.0000
42.8601,24.2566,3.2808,360.0000,10278.0000,1.0000,0.0000
43.2268,24.3165,3.3040,332.0000,10279.0000,1.0000,0.0000
43.5784,24.3768,3.3264,391.0000,10280.0000,1.0000,0.0000
43.9085,24.4289,3.3474,320.0000,10281.0000,1.0000,0.0000
44.2590,24.4739,3.3692,373.0000,10282.0000,1.0000,0.0000
44.5700,24.5009,3.3883,310.0000,10283.0000,1.0000,0.0000
44.9067,24.5515,3.4095,392.0000,10284.0000,1.0000,0.0000
45.3197,24.6306,3.4362,375.0000,10285.0000,1.0000,0.0000
45.7102,24.6953,3.4612,360.0000,10286.0000,1.0000,0.0000
46.0587,24.7467,3.4682,267.0000,10287.0000,1.0000,0.0000
46.4415,24.7975,3.4921,345.0000,10288.0000,1.0000,0.0000
46.8374,24.8646,3.5174,340.0000,10289.0000,1.0000,0.0000
47.2038,24.9200,3.5406,356.0000,10290.0000,1.0000,0.0000
47.5400,24.9402,3.5610,520.0000,10291.0000,1.0000,0.0000
47.5918,24.8221,3.5604,410.0000,10292.0000,1.0000,0.0000
48.0632,24.9273,3.5914,284.0000,10293.0000,1.0000,0.0000
48.8829,25.1917,3.6477,328.0000,10294.0000,1.0000,0.0000
49.2901,25.2520,3.6736,296.0000,10295.0000,1.0000,0.0000
49.6780,25.3065,3.6982,301.0000,10296.0000,1.0000,0.0000
50.1580,25.3876,3.7290,303.0000,10297.0000,1.0000,0.0000
50.5937,25.4497,3.7567,294.0000,10298.0000,1.0000,0.0000
51.0522,25.5331,3.7864,355.0000,10299.0000,1.0000,0.0000
51.4944,25.5939,3.8144,300.0000,10300.0000,1.0000,0.0000
51.9932,25.6801,3.8466,336.0000,10301.0000,1.0000,0.0000
52.4265,25.7441,3.8743,307.0000,10302.0000,1.0000,0.0000
52.9247,25.8188,3.9061,295.0000,10303.0000,1.0000,0.0000
53.2784,25.8333,3.9277,812.0000,10304.0000,1.0000,0.0000
53.5220,25.7994,3.9413,483.0000,10305.0000,1.0000,0.0000
53.8707,25.7958,3.9620,231.0000,10306.0000,1.0000,0.0000
54.9259,26.1390,4.0350,309.0000,10307.0000,1.0000,0.0000
55.3858,26.2015,4.0643,294.0000,10308.0000,1.0000,0.0000
55.9279,26.2809,4.0991,327.0000,10309.0000,1.0000,0.0000
56.4958,26.3824,4.1361,287.0000,10310.0000,1.0000,0.0000
57.0610,26.4864,4.1730,333.0000,10311.0000,1.0000,0.0000
57.5993,26.5550,4.2073,308.0000,10312.0000,1.0000,0.0000
58.1686,26.6485,4.2443,272.0000,10313.0000,1.0000,0.0000
58.7148,26.7352,4.3107,284.0000,10314.0000,1.0000,0.0000
59.3281,26.8290,4.3506,349.0000,10315.0000,1.0000,0.0000
59.5787,26.7637,4.3641,558.0000,10316.0000,1.0000,0.0000
59.9017,26.7432,4.3832,235.0000,10317.0000,1.0000,0.0000
61.1575,27.1207,4.4701,245.0000,10318.0000,1.0000,0.0000
61.7688,27.2076,4.5099,229.0000,10319.0000,1.0000,0.0000
62.3660,27.2992,4.5489,220.0000,10320.0000,1.0000,0.0000
63.0254,27.3935,4.5918,257.0000,10321.0000,1.0000,0.0000
63.7466,27.5252,4.6395,283.0000,10322.0000,1.0000,0.0000
64.3569,27.6131,4.6793,267.0000,10323.0000,1.0000,0.0000
65.1095,27.7364,4.7288,385.0000,10324.0000,1.0000,0.0000
65.4790,27.7085,4.7508,477.0000,10325.0000,1.0000,0.0000
65.7178,27.6313,4.7635,324.0000,10326.0000,1.0000,0.0000
67.1946,28.0473,4.8653,231.0000,10327.0000,1.0000,0.0000
67.9768,28.1824,4.8957,293.0000,10328.0000,1.0000,0.0000
68.6433,28.2736,4.9390,283.0000,10329.0000,1.0000,0.0000
69.4442,28.3932,4.9914,283.0000,10330.0000,1.0000,0.0000
70.2578,28.5214,5.0447,234.0000,10331.0000,1.0000,0.0000
71.0525,28.6615,5.0972,219.0000,10332.0000,1.0000,0.0000
71.5616,28.6515,5.1284,578.0000,10333.0000,1.0000,0.0000
71.8057,28.5417,5.1408,74.0000,10334.0000,2.0000,0.0000
105.0320,41.4574,7.5128,572.0000,10335.0000,1.0000,0.0000
105.0300,41.1543,7.5052,672.0000,10336.0000,1.0000,0.0000
105.0510,40.8609,7.4995,721.0000,10337.0000,1.0000,0.0000
105.0270,40.5735,7.4910,676.0000,10338.0000,1.0000,0.0000
105.0080,40.2544,7.4823,794.0000,10339.0000,1.0000,0.0000
104.9620,39.9482,7.4721,699.0000,10340.0000,1.0000,0.0000
104.9690,39.6749,7.4661,748.0000,10341.0000,1.0000,0.0000
104.9590,39.3608,7.4366,672.0000,10342.0000,1.0000,0.0000
104.9420,39.0680,7.4287,721.0000,10343.0000,1.0000,0.0000
104.8950,38.7758,7.4190,701.0000,10344.0000,1.0000,0.0000
104.9020,38.4703,7.4125,700.0000,10345.0000,1.0000,0.0000
104.8980,38.1837,7.4057,711.0000,10346.0000,1.0000,0.0000
104.8690,37.9002,7.3975,685.0000,10347.0000,1.0000,0.0000
104.8620,37.5912,7.3901,715.0000,10348.0000,1.0000,0.0000
104.8480,37.2915,7.3826,776.0000,10349.0000,1.0000,0.0000
104.8410,37.0174,7.3760,701.0000,10350.0000,1.0000,0.0000
104.8430,36.7134,7.3695,688.0000,10351.0000,1.0000,0.0000
104.8180,36.4227,7.3616,755.0000,10352.0000,1.0000,0.0000
104.8190,36.1531,7.3558,778.0000,10353.0000,1.0000,0.0000
104.7300,35.8193,7.3430,562.0000,10354.0000,1.0000,0.0000
104.5420,35.4755,7.3239,371.0000,10355.0000,1.0000,0.0000
104.7720,35.2847,7.3129,659.0000,10356.0000,1.0000,0.0000
104.7220,34.9665,7.3031,694.0000,10357.0000,1.0000,0.0000
104.7020,34.6811,7.2959,724.0000,10358.0000,1.0000,0.0000
104.7050,34.4152,7.2907,656.0000,10359.0000,1.0000,0.0000
104.6590,34.1000,7.2812,625.0000,10360.0000,1.0000,0.0000
104.6550,33.8215,7.2753,636.0000,10361.0000,1.0000,0.0000
104.6580,33.5568,7.2702,708.0000,10362.0000,1.0000,0.0000
104.6400,33.2525,7.2629,677.0000,10363.0000,1.0000,0.0000
104.6280,32.9620,7.2564,670.0000,10364.0000,1.0000,0.0000
104.6230,32.6959,7.2507,633.0000,10365.0000,1.0000,0.0000
104.6010,32.4030,7.2436,656.0000,10366.0000,1.0000,0.0000
104.5570,32.1041,7.2350,673.0000,10367.0000,1.0000,0.0000
104.5310,31.8331,7.2281,642.0000,10368.0000,1.0000,0.0000
104.5490,31.5431,7.1921,726.0000,10369.0000,1.0000,0.0000
104.5500,31.2703,7.1871,707.0000,10370.0000,1.0000,0.0000
104.5130,30.9976,7.1796,718.0000,10371.0000,1.0000,0.0000
104.5300,30.7083,7.1753,735.0000,10372.0000,1.0000,0.0000
104.4900,30.4247,7.1675,716.0000,10373.0000,1.0000,0.0000
104.4810,30.1615,7.1621,668.0000,10374.0000,1.0000,0.0000
104.4690,29.8655,7.1560,685.0000,10375.0000,1.0000,0.0000
104.2090,29.5211,7.1333,385.0000,10376.0000,1.0000,0.0000
104.3600,29.3047,7.1390,451.0000,10377.0000,1.0000,0.0000
104.4030,29.0255,7.1368,688.0000,10378.0000,1.0000,0.0000
104.4250,28.7515,7.1334,729.0000,10379.0000,1.0000,0.0000
104.4100,28.4891,7.1279,752.0000,10380.0000,1.0000,0.0000
104.3760,28.2003,7.1207,751.0000,10381.0000,1.0000,0.0000
104.3670,27.9192,7.1154,668.0000,10382.0000,1.0000,0.0000
104.3580,27.6595,7.1104,661.0000,10383.0000,1.0000,0.0000
104.3480,27.3788,7.1050,708.0000,10384.0000,1.0000,0.0000
104.3430,27.0997,7.1001,613.0000,10385.0000,1.0000,0.0000
104.3290,26.8399,7.0949,700.0000,10386.0000,1.0000,0.0000
104.3170,26.5491,7.0894,735.0000,10387.0000,1.0000,0.0000
104.3010,26.2790,7.0840,687.0000,10388.0000,1.0000,0.0000
104.3010,26.0241,7.0799,704.0000,10389.0000,1.0000,0.0000
104.3110,25.7400,7.0761,686.0000,10390.0000,1.0000,0.0000
104.2480,25.4595,7.0676,726.0000,10391.0000,1.0000,0.0000
104.2600,25.2083,7.0645,708.0000,10392.0000,1.0000,0.0000
104.2610,24.9232,7.0602,748.0000,10393.0000,1.0000,0.0000
104.2200,24.6495,7.0534,776.0000,10394.0000,1.0000,0.0000
104.1890,24.3892,7.0475,676.0000,10395.0000,1.0000,0.0000
104.1740,24.1014,7.0422,728.0000,10396.0000,1.0000,0.0000
104.1840,23.8304,7.0183,698.0000,10397.0000,1.0000,0.0000
103.9810,23.5324,7.0010,435.0000,10398.0000,1.0000,0.0000
103.9860,23.2612,6.9974,371.0000,10399.0000,1.0000,0.0000
104.1580,23.0272,7.0051,726.0000,10400.0000,1.0000,0.0000
104.1400,22.7721,7.0003,736.0000,10401.0000,1.0000,0.0000
104.1220,22.4858,6.9951,712.0000,10402.0000,1.0000,0.0000
104.1160,22.2235,6.9912,718.0000,10403.0000,1.0000,0.0000
104.1010,21.9701,6.9868,734.0000,10404.0000,1.0000,0.0000
104.0680,21.6818,6.9807,670.0000,10405.0000,1.0000,0.0000
104.0720,21.4225,6.9775,710.0000,10406.0000,1.0000,0.0000
104.0590,21.1704,6.9734,698.0000,10407.0000,1.0000,0.0000
104.0500,20.8883,6.9692,697.0000,10408.0000,1.0000,0.0000
104.0400,20.6271,6.9652,691.0000,10409.0000,1.0000,0.0000
104.0030,20.3712,6.9596,661.0000,10410.0000,1.0000,0.0000
104.0020,20.0916,6.9254,678.0000,10411.0000,1.0000,0.0000
103.9630,19.8257,6.9196,677.0000,10412.0000,1.0000,0.0000
103.9650,19.5783,6.9167,677.0000,10413.0000,1.0000,0.0000
103.9550,19.2979,6.9127,699.0000,10414.0000,1.0000,0.0000
103.9270,19.0249,6.9077,676.0000,10415.0000,1.0000,0.0000
103.9410,18.7803,6.9057,698.0000,10416.0000,1.0000,0.0000
103.9020,18.5060,6.9000,709.0000,10417.0000,1.0000,0.0000
103.9320,18.2443,6.8990,680.0000,10418.0000,1.0000,0.0000
103.9100,17.9941,6.8948,725.0000,10419.0000,1.0000,0.0000
103.9230,17.7193,6.8926,680.0000,10420.0000,1.0000,0.0000
103.6690,17.4205,6.8730,409.0000,10421.0000,1.0000,0.0000
103.6470,17.1718,6.8689,375.0000,10422.0000,1.0000,0.0000
105.5830,17.2114,6.9942,268.0000,10423.0000,1.0000,0.0000
106.8240,17.1506,7.0736,278.0000,10424.0000,1.0000,0.0000
107.9710,17.0797,7.1470,234.0000,10425.0000,1.0000,0.0000
109.4130,17.0173,7.2395,232.0000,10426.0000,1.0000,0.0000
110.2010,16.8693,7.2889,315.0000,10427.0000,1.0000,0.0000
112.0850,16.8934,7.4110,202.0000,10428.0000,1.0000,0.0000
113.4940,16.8051,7.5012,237.0000,10429.0000,1.0000,0.0000
114.9810,16.7322,7.5968,268.0000,10430.0000,1.0000,0.0000
116.3130,16.6525,7.6822,285.0000,10431.0000,1.0000,0.0000
116.7980,16.4249,7.7115,220.0000,10432.0000,1.0000,0.0000
119.4750,16.4972,7.8855,220.0000,10433.0000,1.0000,0.0000
120.8440,16.4027,7.9734,251.0000,10434.0000,1.0000,0.0000
122.7600,16.3388,8.0970,250.0000,10435.0000,1.0000,0.0000
123.3020,16.1102,8.1302,280.0000,10436.0000,1.0000,0.0000
126.0940,16.1794,8.3117,244.0000,10437.0000,1.0000,0.0000
127.9090,16.0755,8.4907,257.0000,10438.0000,1.0000,0.0000
129.5250,15.9630,8.5954,431.0000,10439.0000,1.0000,0.0000
129.9000,15.7058,8.6179,38.0000,10440.0000,2.0000,0.0000
133.5300,15.7935,8.8560,168.0000,10441.0000,1.0000,0.0000
135.6130,15.7099,8.9916,163.0000,10442.0000,1.0000,0.0000
136.3080,15.4726,9.0353,256.0000,10443.0000,1.0000,0.0000
139.9390,15.5172,9.2733,137.0000,10444.0000,1.0000,0.0000
142.0970,15.3977,9.4137,236.0000,10445.0000,1.0000,0.0000
142.8230,15.1439,9.4595,273.0000,10446.0000,1.0000,0.0000
146.7770,15.1925,9.7188,91.0000,10447.0000,1.0000,0.0000
149.1030,15.0574,9.8704,289.0000,10448.0000,1.0000,0.0000
149.4120,14.7413,9.8885,37.0000,10449.0000,1.0000,0.0000
0.0000,0.0000,0.0000,0.0000,10450.0000,0.0000,0.0000
0.0000,0.0000,0.0000,0.0000,10451.0000,0.0000,0.0000
0.0000,0.0000,0.0000,0.0000,10452.0000,0.0000,0.0000
0.0000,0.0000,0.0000,0.0000,10453.0000,0.0000,0.0000
0.0000,0.0000,0.0000,0.0000,10454.0000,0.0000,0.0000
0.0000,0.0000,0.0000,0.0000,10455.0000,0.0000,0.0000
0.0000,0.0000,0.0000,0.0000,10456.0000,0.0000,0.0000
0.0000,0.0000,0.0000,0.0000,10457.0000,0.0000,0.0000
130.0430,9.9691,8.5023,38.0000,10458.0000,1.0000,0.0000
130.2510,9.6459,8.5142,15.0000,10459.0000,2.0000,0.0000
131.4460,9.4175,8.5908,133.0000,10460.0000,1.0000,0.0000
128.7430,8.9267,8.4128,30.0000,10461.0000,2.0000,0.0000
129.1860,8.6213,8.4403,22.0000,10462.0000,2.0000,0.0000
131.0980,8.4204,8.5639,54.0000,10463.0000,1.0000,0.0000
140.6170,8.7051,9.1843,60.0000,10464.0000,1.0000,0.0000
140.1020,8.3228,9.1493,102.0000,10465.0000,1.0000,0.0000
167.8080,9.5439,10.9571,252.0000,10466.0000,1.0000,0.0000
140.3990,7.6652,9.1662,76.0000,10467.0000,2.0000,0.0000
150.7380,7.8365,9.8399,18.0000,10468.0000,2.0000,0.0000
170.1080,8.4314,11.1029,123.0000,10469.0000,1.0000,0.0000
151.1850,7.1476,9.8667,19.0000,10470.0000,2.0000,0.0000
167.8380,7.4968,10.9522,54.0000,10471.0000,1.0000,0.0000
166.9650,7.0570,10.8942,130.0000,10472.0000,1.0000,0.0000
166.7910,6.6652,10.8818,217.0000,10473.0000,1.0000,0.0000
166.9070,6.2371,10.8883,76.0000,10474.0000,1.0000,0.0000
174.1080,6.0873,11.3570,104.0000,10475.0000,1.0000,0.0000
172.1300,5.6219,11.2272,90.0000,10476.0000,1.0000,0.0000
172.8410,5.1972,11.2726,205.0000,10477.0000,1.0000,0.0000
166.5500,4.5934,10.8616,10.0000,10478.0000,1.0000,0.0000
0.0000,0.0000,0.0000,0.0000,10479.0000,0.0000,0.0000
165.6540,3.7743,10.8018,172.0000,10480.0000,1.0000,0.0000
165.8990,3.3661,10.8172,183.0000,10481.0000,1.0000,0.0000
167.0950,3.0055,10.8947,98.0000,10482.0000,1.0000,0.0000
0.0000,0.0000,0.0000,0.0000,10483.0000,0.0000,0.0000
171.9990,2.2353,11.2136,147.0000,10484.0000,1.0000,0.0000
172.1800,1.8414,11.2251,34.0000,10485.0000,1.0000,0.0000
171.3910,1.3894,11.1734,101.0000,10486.0000,1.0000,0.0000
0.0000,0.0000,0.0000,0.0000,10487.0000,0.0000,0.0000
0.0000,0.0000,0.0000,0.0000,10488.0000,0.0000,0.0000
0.0000,0.0000,0.0000,0.0000,10489.0000,0.0000,0.0000
0.0000,-0.0000,0.0000,0.0000,10490.0000,0.0000,0.0000
0.0000,-0.0000,0.0000,0.0000,10491.0000,0.0000,0.0000
0.0000,-0.0000,0.0000,0.0000,10492.0000,0.0000,0.0000
0.0000,-0.0000,0.0000,0.0000,10493.0000,0.0000,0.0000
0.0000,-0.0000,0.0000,0.0000,10494.0000,0.0000,0.0000
0.0000,-0.0000,0.0000,0.0000,10495.0000,0.0000,0.0000
0.0000,-0.0000,0.0000,0.0000,10496.0000,0.0000,0.0000
0.0000,-0.0000,0.0000,0.0000,10497.0000,0.0000,0.0000
0.0000,-0.0000,0.0000,0.0000,10498.0000,0.0000,0.0000
0.0000,-0.0000,0.0000,0.0000,10499.0000,0.0000,0.0000
165.9700,3.8418,11.3821,329.0000,10500.0000,1.0000,0.0000
165.5040,3.4341,11.3496,415.0000,10501.0000,1.0000,0.0000
165.7460,3.0577,11.3657,240.0000,10502.0000,1.0000,0.0000
167.3010,2.6534,11.4718,33.0000,10503.0000,1.0000,0.0000
171.5360,2.2935,11.7617,275.0000,10504.0000,1.0000,0.0000
168.5280,1.8650,11.5552,313.0000,10505.0000,1.0000,0.0000
169.0270,1.4492,11.5891,404.0000,10506.0000,1.0000,0.0000
171.2470,1.0417,11.7411,297.0000,10507.0000,1.0000,0.0000
170.5080,0.6447,11.6903,91.0000,10508.0000,1.0000,0.0000
170.1430,0.2029,11.6652,340.0000,10509.0000,1.0000,0.0000
170.2780,-0.2051,11.6744,261.0000,10510.0000,1.0000,0.0000
0.0000,-0.0000,0.0000,0.0000,10511.0000,0.0000,0.0000
0.0000,-0.0000,0.0000,0.0000,10512.0000,0.0000,0.0000
0.0000,-0.0000,0.0000,0.0000,10513.0000,0.0000,0.0000
0.0000,-0.0000,0.0000,0.0000,10514.0000,0.0000,0.0000
0.0000,-0.0000,0.0000,0.0000,10515.0000,0.0000,0.0000
0.0000,-0.0000,0.0000,0.0000,10516.0000,0.0000,0.0000
0.0000,-0.0000,0.0000,0.0000,10517.0000,0.0000,0.0000
0.0000,-0.0000,0.0000,0.0000,10518.0000,0.0000,0.0000
0.0000,-0.0000,0.0000,0.0000,10519.0000,0.0000,0.0000
0.0000,-0.0000,0.0000,0.0000,10520.0000,0.0000,0.0000
0.0000,-0.0000,0.0000,0.0000,10521.0000,0.0000,0.0000
0.0000,-0.0000,0.0000,0.0000,10522.0000,0.0000,0.0000
0.0000,-0.0000,0.0000,0.0000,10523.0000,0.0000,0.0000
0.0000,-0.0000,0.0000,0.0000,10524.0000,0.0000,0.0000
0.0000,-0.0000,0.0000,0.0000,10525.0000,0.0000,0.0000
0.0000,-0.0000,0.0000,0.0000,10526.0000,0.0000,0.0000
0.0000,-0.0000,0.0000,0.0000,10527.0000,0.0000,0.0000
0.0000,-0.0000,0.0000,0.0000,10528.0000,0.0000,0.0000
66.3946,-3.1597,4.5059,688.0000,10529.0000,1.0000,0.0000
66.3853,-3.3315,4.5059,713.0000,10530.0000,1.0000,0.0000
66.3752,-3.4905,4.5057,704.0000,10531.0000,1.0000,0.0000
66.3749,-3.6436,4.5063,777.0000,10532.0000,1.0000,0.0000
66.3449,-3.8142,4.5049,679.0000,10533.0000,1.0000,0.0000
66.3638,-3.9749,4.5068,649.0000,10534.0000,1.0000,0.0000
66.3467,-4.1271,4.5063,701.0000,10535.0000,1.0000,0.0000
66.3359,-4.2989,4.5063,701.0000,10536.0000,1.0000,0.0000
66.3241,-4.4642,4.5062,755.0000,10537.0000,1.0000,0.0000
66.2962,-4.6155,4.5050,563.0000,10538.0000,1.0000,0.0000
66.2894,-4.7811,4.5053,880.0000,10539.0000,1.0000,0.0000
66.2968,-4.9478,4.5067,835.0000,10540.0000,1.0000,0.0000
66.3086,-5.1021,4.5082,600.0000,10541.0000,1.0000,0.0000
66.2807,-5.2726,4.5072,746.0000,10542.0000,1.0000,0.0000
66.2640,-5.4311,4.5070,877.0000,10543.0000,1.0000,0.0000
66.2465,-5.5832,4.5067,746.0000,10544.0000,1.0000,0.0000
66.2436,-5.7557,4.5075,685.0000,10545.0000,1.0000,0.0000
66.2384,-5.9152,4.5080,695.0000,10546.0000,1.0000,0.0000
66.2499,-6.0699,4.5098,860.0000,10547.0000,1.0000,0.0000
66.2428,-6.2422,4.5104,793.0000,10548.0000,1.0000,0.0000
66.2306,-6.4012,4.5106,878.0000,10549.0000,1.0000,0.0000
66.2109,-6.5531,4.5102,784.0000,10550.0000,1.0000,0.0000
66.1870,-6.7238,4.5098,799.0000,10551.0000,1.0000,0.0000
66.1662,-6.8884,4.5095,735.0000,10552.0000,1.0000,0.0000
66.2012,-7.0396,4.5001,717.0000,10553.0000,1.0000,0.0000
66.1721,-7.2098,4.4994,858.0000,10554.0000,1.0000,0.0000
66.1753,-7.3770,4.5008,745.0000,10555.0000,1.0000,0.0000
66.1369,-7.5269,4.4994,836.0000,10556.0000,1.0000,0.0000
66.1645,-7.6971,4.5025,834.0000,10557.0000,1.0000,0.0000
66.1510,-7.8627,4.5029,654.0000,10558.0000,1.0000,0.0000
66.1473,-8.0166,4.5039,688.0000,10559.0000,1.0000,0.0000
66.1331,-8.1887,4.5044,746.0000,10560.0000,1.0000,0.0000
66.1230,-8.3484,4.5050,688.0000,10561.0000,1.0000,0.0000
66.1172,-8.5022,4.5060,746.0000,10562.0000,1.0000,0.0000
66.1086,-8.6751,4.5069,801.0000,10563.0000,1.0000,0.0000
66.0993,-8.8351,4.5077,829.0000,10564.0000,1.0000,0.0000
66.0730,-8.9864,4.5073,863.0000,10565.0000,1.0000,0.0000
66.0641,-9.1594,4.5083,756.0000,10566.0000,1.0000,0.0000
64.4707,-9.0966,4.3947,213.0000,10567.0000,1.0000,0.0000
62.8775,-9.0201,4.2875,243.0000,10568.0000,1.0000,0.0000
61.1098,-8.9287,4.1686,228.0000,10569.0000,1.0000,0.0000
59.7959,-8.8895,4.0804,360.0000,10570.0000,1.0000,0.0000
59.7465,-9.0227,4.0785,402.0000,10571.0000,1.0000,0.0000
59.7036,-9.1685,4.0771,418.0000,10572.0000,1.0000,0.0000
59.6316,-9.3097,4.0737,633.0000,10573.0000,1.0000,0.0000
59.6033,-9.4458,4.0733,867.0000,10574.0000,1.0000,0.0000
59.5537,-9.5961,4.0716,765.0000,10575.0000,1.0000,0.0000
59.5200,-9.7370,4.0708,699.0000,10576.0000,1.0000,0.0000
59.5042,-9.8751,4.0713,744.0000,10577.0000,1.0000,0.0000
59.4488,-10.0241,4.0692,701.0000,10578.0000,1.0000,0.0000
59.4150,-10.1649,4.0686,947.0000,10579.0000,1.0000,0.0000
59.3702,-10.2979,4.0845,847.0000,10580.0000,1.0000,0.0000
59.3290,-10.4490,4.0835,759.0000,10581.0000,1.0000,0.0000
59.2847,-10.5878,4.0822,501.0000,10582.0000,1.0000,0.0000
59.2458,-10.7216,4.0812,681.0000,10583.0000,1.0000,0.0000
59.2228,-10.8758,4.0816,833.0000,10584.0000,1.0000,0.0000
59.1956,-11.0175,4.0815,724.0000,10585.0000,1.0000,0.0000
59.1567,-11.1570,4.0806,787.0000,10586.0000,1.0000,0.0000
59.1000,-11.2990,4.0787,747.0000,10587.0000,1.0000,0.0000
59.0650,-11.4450,4.0782,763.0000,10588.0000,1.0000,0.0000
59.0329,-11.5797,4.0778,763.0000,10589.0000,1.0000,0.0000
58.9750,-11.7270,4.0759,788.0000,10590.0000,1.0000,0.0000
58.9516,-11.8693,4.0762,550.0000,10591.0000,1.0000,0.0000
58.9118,-12.0023,4.0754,749.0000,10592.0000,1.0000,0.0000
58.8758,-12.1538,4.0750,897.0000,10593.0000,1.0000,0.0000
58.8370,-12.2929,4.0454,764.0000,10594.0000,1.0000,0.0000
58.7839,-12.4230,4.0437,758.0000,10595.0000,1.0000,0.0000
58.7573,-12.5764,4.0441,746.0000,10596.0000,1.0000,0.0000
58.7270,-12.7172,4.0441,788.0000,10597.0000,1.0000,0.0000
58.6958,-12.8519,4.0440,748.0000,10598.0000,1.0000,0.0000
58.6510,-13.0012,4.0432,737.0000,10599.0000,1.0000,0.0000
58.6102,-13.1396,4.0425,623.0000,10600.0000,1.0000,0.0000
58.5827,-13.2751,4.0427,782.0000,10601.0000,1.0000,0.0000
58.5254,-13.4215,4.0412,742.0000,10602.0000,1.0000,0.0000
58.4928,-13.5676,4.0412,761.0000,10603.0000,1.0000,0.0000
58.4491,-13.6992,4.0404,744.0000,10604.0000,1.0000,0.0000
58.4244,-13.8471,4.0410,721.0000,10605.0000,1.0000,0.0000
58.3746,-13.9891,4.0400,889.0000,10606.0000,1.0000,0.0000
58.3480,-14.1248,4.0404,744.0000,10607.0000,1.0000,0.0000
58.2800,-14.2681,4.0382,765.0000,10608.0000,1.0000,0.0000
17.3799,-4.3170,1.2050,16.0000,10609.0000,2.0000,0.0000
17.4371,-4.3737,1.2096,26.0000,10610.0000,2.0000,0.0000
17.3851,-4.4086,1.2068,149.0000,10611.0000,1.0000,0.0000
17.1196,-4.3853,1.1891,153.0000,10612.0000,1.0000,0.0000
16.9841,-4.3925,1.1804,147.0000,10613.0000,1.0000,0.0000
16.8614,-4.4075,1.1726,208.0000,10614.0000,1.0000,0.0000
16.7585,-4.4236,1.1662,335.0000,10615.0000,1.0000,0.0000
16.7013,-4.4497,1.1629,320.0000,10616.0000,1.0000,0.0000
16.6785,-4.4899,1.1621,756.0000,10617.0000,1.0000,0.0000
16.6767,-4.5340,1.1628,718.0000,10618.0000,1.0000,0.0000
16.6507,-4.5664,1.1617,718.0000,10619.0000,1.0000,0.0000
16.6624,-4.6160,1.1633,751.0000,10620.0000,1.0000,0.0000
16.6819,-4.6661,1.1655,751.0000,10621.0000,1.0000,0.0000
16.6564,-4.7003,1.1611,745.0000,10622.0000,1.0000,0.0000
16.6418,-4.7410,1.1609,789.0000,10623.0000,1.0000,0.0000
16.6563,-4.7900,1.1627,931.0000,10624.0000,1.0000,0.0000
16.6658,-4.8343,1.1642,914.0000,10625.0000,1.0000,0.0000
16.6618,-4.8798,1.1648,942.0000,10626.0000,1.0000,0.0000
16.6594,-4.9225,1.1654,784.0000,10627.0000,1.0000,0.0000
16.6425,-4.9592,1.1650,758.0000,10628.0000,1.0000,0.0000
16.6493,-5.0081,1.1664,885.0000,10629.0000,1.0000,0.0000
16.6364,-5.0477,1.1663,772.0000,10630.0000,1.0000,0.0000
16.6425,-5.0914,1.1676,882.0000,10631.0000,1.0000,0.0000
16.6340,-5.1359,1.1679,768.0000,10632.0000,1.0000,0.0000
16.6533,-5.1855,1.1701,756.0000,10633.0000,1.0000,0.0000
16.6479,-5.2259,1.1706,882.0000,10634.0000,1.0000,0.0000
16.6232,-5.2654,1.1698,887.0000,10635.0000,1.0000,0.0000
16.6640,-5.3240,1.1736,764.0000,10636.0000,1.0000,0.0000
16.6313,-5.3558,1.1722,770.0000,10637.0000,1.0000,0.0000
16.6606,-5.4110,1.1752,721.0000,10638.0000,1.0000,0.0000
16.6435,-5.4513,1.1749,765.0000,10639.0000,1.0000,0.0000
16.6476,-5.4950,1.1761,894.0000,10640.0000,1.0000,0.0000
16.6334,-5.5381,1.1761,921.0000,10641.0000,1.0000,0.0000
16.6562,-5.5900,1.1786,911.0000,10642.0000,1.0000,0.0000
16.6359,-5.6258,1.1781,775.0000,10643.0000,1.0000,0.0000
16.6463,-5.6773,1.1799,712.0000,10644.0000,1.0000,0.0000
16.6493,-5.7229,1.1810,881.0000,10645.0000,1.0000,0.0000
16.6453,-5.7644,1.1817,795.0000,10646.0000,1.0000,0.0000
16.6350,-5.8090,1.1820,752.0000,10647.0000,1.0000,0.0000
16.6312,-5.8524,1.1827,797.0000,10648.0000,1.0000,0.0000
16.6402,-5.8986,1.1792,760.0000,10649.0000,1.0000,0.0000
16.6515,-5.9511,1.1811,742.0000,10650.0000,1.0000,0.0000
16.6413,-5.9943,1.1815,729.0000,10651.0000,1.0000,0.0000
